# .PCD v0.7 - Point Cloud Data file format
VERSION 0.7
FIELDS x y z intensity
SIZE 4 4 4 4
TYPE F F F F
COUNT 1 1 1 1
WIDTH 1155
HEIGHT 1
VIEWPOINT 0 0 0 1 0 0 0
POINTS 1155
DATA ascii
2.1663735 -12.673806 -2.1124303 260.29999
2.4443474 -14.300021 -2.0388858 260.29999
3.5437806 -20.73197 -1.9622493 260.29999
2.5632041 -14.99536 -1.0637863 260.29999
2.5643175 -15.001874 -0.70974511 260.29999
0.84203577 -4.9261122 -2.0874507 260.29999
2.5616961 -14.98654 -0.35298976 260.29999
0.90276498 -5.2813926 -2.0922267 260.29999
2.5660932 -15.012264 0 260.29999
0.96643549 -5.6538806 -2.0876911 260.29999
2.5633807 -14.996394 0.35322186 260.29999
1.0404236 -6.0867286 -2.0865226 260.29999
2.5656638 -15.009751 0.71011776 260.29999
1.1249205 -6.5810561 -2.0833359 260.29999
2.5584977 -14.967829 1.061833 260.29999
1.2257314 -7.1708236 -2.0860236 260.29999
2.5640571 -15.000352 1.4197603 260.29999
1.3470048 -7.8803024 -2.09287 260.29999
2.5644557 -15.002684 1.7798933 260.29999
1.4948959 -8.7455015 -2.1022394 260.29999
2.5517986 -14.928637 2.1285133 260.29999
1.6569744 -9.6936998 -2.0903442 260.29999
2.5597456 -14.975128 2.4960074 260.29999
1.8627321 -10.897431 -2.0829611 260.29999
2.5677555 -15.021988 2.8713386 260.29999
2.1317008 -12.697695 -2.1153486 260.47
2.4153519 -14.387292 -2.0502982 260.47
2.8234932 -16.818428 -1.9943075 260.47
3.4825816 -20.744356 -1.962435 260.47
4.6472917 -27.682072 -1.9628077 260.47
5.6607728 -33.718975 -1.5944575 260.47
0.8277216 -4.930409 -2.0882215 260.47
0.88770771 -5.2877226 -2.0936818 260.47
0.94934469 -5.6548696 -2.0870068 260.47
1.0233004 -6.0953946 -2.0884433 260.47
1.1063375 -6.5900135 -2.0851233 260.47
1.2057229 -7.182013 -2.0882287 260.47
1.3236176 -7.8842645 -2.09287 260.47
1.4670078 -8.7383833 -2.0994725 260.47
1.6288532 -9.7024317 -2.0911758 260.47
2.5100744 -14.951516 2.4908197 260.47
1.8303906 -10.90291 -2.0829611 260.47
2.0904858 -12.682544 -2.1117818 260.64001
2.3877923 -14.486241 -2.0633805 260.64001
2.7745488 -16.832611 -1.9950044 260.64001
3.4242554 -20.774246 -1.9642929 260.64001
4.5764937 -27.764639 -1.9676906 260.64001
5.5918941 -33.924862 -1.6034015 260.64001
0.81308913 -4.9328432 -2.0882215 260.64001
0.87231779 -5.292171 -2.0944092 260.64001
13.722999 -83.254585 0 260.64001
0.93225658 -5.655807 -2.0863228 260.64001
1.0052106 -6.0984039 -2.0884433 260.64001
1.0864692 -6.5913835 -2.0845275 260.64001
1.1850336 -7.1893525 -2.0893312 260.64001
1.299904 -7.8862481 -2.0923634 260.64001
1.4436061 -8.7580585 -2.1031616 260.64001
1.5997401 -9.7052917 -2.09076 260.64001
2.4746885 -15.013421 2.4998984 260.64001
1.7986722 -10.912171 -2.0837016 260.64001
2.0537925 -12.694535 -2.1127546 260.81
2.3628302 -14.604704 -2.079246 260.81
2.7287176 -16.866262 -1.9980243 260.81
3.3676906 -20.815769 -1.9672654 260.81
4.5030165 -27.833242 -1.971597 260.81
5.6788263 -35.100948 -1.6581837 260.81
0.79756534 -4.9297686 -2.0859089 260.81
0.85631424 -5.2928972 -2.0936818 260.81
13.579728 -83.936592 0 260.81
0.91637182 -5.664114 -2.0883751 260.81
13.862191 -85.682503 2.0151613 260.81
0.98650664 -6.0976191 -2.0871627 260.81
13.864275 -85.695381 4.048286 260.81
1.0666025 -6.5926933 -2.0839317 260.81
1.162776 -7.1871433 -2.0876772 260.81
1.2774264 -7.8958001 -2.093883 260.81
1.417925 -8.764225 -2.1036227 260.81
1.5715619 -9.7138577 -2.0915916 260.81
1.7666012 -10.9194 -2.0840719 260.81
2.0148804 -12.692777 -2.1114576 260.98001
2.3353226 -14.711409 -2.0934417 260.98001
2.680531 -16.886055 -1.9994181 260.98001
3.3115339 -20.861071 -1.9706095 260.98001
4.4251056 -27.876038 -1.9736897 260.98001
5.8919449 -37.116417 -1.7525617 260.98001
0.7829349 -4.9321132 -2.0859089 260.98001
0.84089828 -5.2972546 -2.0944092 260.98001
0.89897275 -5.663096 -2.0870068 260.98001
13.770285 -86.74617 2.0392075 260.98001
0.96930152 -6.106133 -2.0890834 260.98001
1.0476356 -6.5995998 -2.0851233 260.98001
1.1429533 -7.2000556 -2.0904336 260.98001
1.2542968 -7.9014664 -2.0943894 260.98001
1.3913045 -8.7645493 -2.1027005 260.98001
1.5430402 -9.7204103 -2.0920074 260.98001
1.7351193 -10.930417 -2.0851829 260.98001
1.9778186 -12.7026 -2.1121061 261.14999
2.3090308 -14.829819 -2.1093075 261.14999
2.632251 -16.905712 -2.0008118 261.14999
3.2514615 -20.88261 -1.9717243 261.14999
4.3469806 -27.918613 -1.9757824 261.14999
0.77142078 -4.954473 -2.0943882 261.14999
0.82431746 -5.2942038 -2.0922267 261.14999
0.88303351 -5.671309 -2.0890591 261.14999
0.95088851 -6.10711 -2.0884433 261.14999
1.0280496 -6.6026793 -2.0851233 261.14999
1.1212895 -7.2015157 -2.0898824 261.14999
1.2302519 -7.9013295 -2.0933764 261.14999
1.3661917 -8.7744074 -2.1040838 261.14999
1.5141923 -9.724946 -2.0920074 261.14999
1.7026806 -10.935517 -2.0851829 261.14999
2.3295064 -14.961326 2.8528235 261.14999
1.9417422 -12.704171 -2.1114576 261.31
2.2819724 -14.930183 -2.122668 261.31
2.5877323 -16.93067 -2.0029027 261.31
3.2012572 -20.944757 -1.9767404 261.31
4.2777419 -27.987839 -1.9798282 261.31
6.0967369 -39.888916 -1.8817841 261.31
0.75451517 -4.9365406 -2.0859089 261.31
0.80896711 -5.2928019 -2.0907719 261.31
0.86776072 -5.6774688 -2.0904272 261.31
0.93383056 -6.1097417 -2.0884433 261.31
1.0096074 -6.6055245 -2.0851233 261.31
1.1017556 -7.2084193 -2.0909851 261.31
1.2081825 -7.9047346 -2.0933764 261.31
1.3408016 -8.7724171 -2.1027005 261.31
1.4873248 -9.7310705 -2.0924232 261.31
1.673324 -10.948001 -2.0866642 261.31
1.9007698 -12.718348 -2.1127546 261.5
2.2406464 -14.992515 -2.1304619 261.5
2.5336294 -16.952909 -2.0045288 261.5
3.1347277 -20.974953 -1.9785982 261.5
4.1946392 -28.066986 -1.9844322 261.5
5.9768295 -39.991901 -1.8856971 261.5
0.73814082 -4.9390159 -2.0859089 261.5
0.79223716 -5.300983 -2.0929544 261.5
0.84837317 -5.6765976 -2.0890591 261.5
0.91384482 -6.1146784 -2.0890834 261.5
0.98769718 -6.6088362 -2.0851233 261.5
1.0769931 -7.2063293 -2.0893312 261.5
1.1819627 -7.9086976 -2.0933764 261.5
1.3128544 -8.7845144 -2.1045449 261.5
1.4547582 -9.7340136 -2.0920074 261.5
1.63701 -10.953489 -2.0866642 261.5
2.2389417 -14.981108 2.8539343 261.5
1.8646736 -12.719701 -2.1121061 261.66
2.1999197 -15.006552 -2.1315751 261.66
2.4914644 -16.995296 -2.0087101 261.66
3.0822079 -21.025002 -1.9824997 261.66
4.1194286 -28.100306 -1.9859668 261.66
5.8251386 -39.735649 -1.87284 261.66
0.72729015 -4.9611435 -2.0943882 261.66
0.77824163 -5.3087044 -2.0951366 261.66
0.83306307 -5.6826634 -2.0904272 261.66
0.89676589 -6.1172066 -2.0890834 261.66
0.96840721 -6.6059017 -2.0833359 261.66
1.0565863 -7.2074065 -2.0887799 261.66
1.1607149 -7.9177103 -2.0948961 261.66
1.2866247 -8.7765932 -2.1017783 261.66
1.4278537 -9.739974 -2.0924232 261.66
1.6069859 -10.961907 -2.0874047 261.66
2.1931067 -14.960077 2.8487501 261.66
1.8216439 -12.719954 -2.1111333 261.85001
2.1543558 -15.043173 -2.1357503 261.85001
2.4393165 -17.032961 -2.0121946 261.85001
3.0172689 -21.068617 -1.985658 261.85001
4.0335755 -28.165161 -1.9895941 261.85001
5.7208109 -39.946579 -1.8818773 261.85001
0.71004951 -4.9580474 -2.0920758 261.85001
0.75984073 -5.3057232 -2.0929544 261.85001
13.300121 -92.870468 0 261.85001
0.81368119 -5.681674 -2.0890591 261.85001
13.279531 -92.726692 2.1748049 261.85001
0.87674415 -6.1220226 -2.0897236 261.85001
0.94784921 -6.618526 -2.0863147 261.85001
1.0332249 -7.2146769 -2.0898824 261.85001
1.134178 -7.9196005 -2.0943894 261.85001
1.2577893 -8.7827377 -2.1022394 261.85001
1.396379 -9.7504654 -2.0936708 261.85001
1.570626 -10.967176 -2.0874047 261.85001
1.7841691 -12.727257 -2.1114576 262.01999
2.1088874 -15.043614 -2.1349154 262.01999
2.3920772 -17.06373 -2.0149822 262.01999
2.9564025 -21.08931 -1.9867727 262.01999
3.9513752 -28.186884 -1.9902917 262.01999
5.7758851 -41.201908 -1.9401997 262.01999
0.69584799 -4.9637876 -2.0936174 262.01999
0.74435365 -5.3097997 -2.0936818 262.01999
0.79760253 -5.6896467 -2.0911112 262.01999
13.881778 -99.02478 2.3215437 262.01999
0.85857594 -6.1245966 -2.0897236 262.01999
0.92794251 -6.6194186 -2.0857189 262.01999
1.0120809 -7.2196145 -2.0904336 262.01999
1.1112124 -7.9267631 -2.0954025 262.01999
1.2325354 -8.7922125 -2.1036227 262.01999
1.3674427 -9.7545652 -2.0936708 262.01999
1.5386246 -10.97568 -2.0881453 262.01999
1.7463988 -12.732494 -2.1114576 262.19
2.0650504 -15.055692 -2.1357503 262.19
2.3449469 -17.096338 -2.0180023 262.19
2.9005814 -21.14731 -1.9914173 262.19
2.5438714 -18.54664 -1.30905 262.19
5.710351 -41.632538 -1.9596716 262.19
0.67961246 -4.9548602 -2.0889924 262.19
0.72884905 -5.3138304 -2.0944092 262.19
0.78020674 -5.6882644 -2.0897431 262.19
0.84040016 -6.1271172 -2.0897236 262.19
0.90829819 -6.6221428 -2.0857189 262.19
0.99039418 -7.2206812 -2.0898824 262.19
1.0871625 -7.9261913 -2.0943894 262.19
1.2075008 -8.8035431 -2.1054671 262.19
1.3382285 -9.7566414 -2.0932548 262.19
1.5065866 -10.984092 -2.088886 262.19
1.7058659 -12.734006 -2.1108091 262.37
2.019845 -15.077809 -2.1379771 262.37
2.2954457 -17.135122 -2.021719 262.37
2.4845908 -18.547058 -1.745811 262.37
2.4882421 -18.574316 -1.3104451 262.37
0.66477805 -4.9624581 -2.091305 262.37
0.71190423 -5.3142471 -2.0936818 262.37
0.76208317 -5.6888247 -2.0890591 262.37
0.82039237 -6.1240935 -2.0878029 262.37
0.88774318 -6.6268559 -2.0863147 262.37
0.96796018 -7.2256622 -2.0904336 262.37
1.0627701 -7.933403 -2.0954025 262.37
1.1785457 -8.7976484 -2.1031616 262.37
1.3078303 -9.7627363 -2.0936708 262.37
1.4725935 -10.992667 -2.0896266 262.37
1.6685883 -12.742925 -2.1114576 262.54001
1.9738138 -15.073916 -2.1365855 262.54001
2.2492371 -17.177311 -2.0259004 262.54001
2.7762589 -21.20215 -1.9949472 262.54001
3.718195 -28.395668 -2.002569 262.54001
0.65005124 -4.9644084 -2.091305 262.54001
0.69661725 -5.3200307 -2.0951366 262.54001
0.74520075 -5.6910605 -2.0890591 262.54001
2.4049163 -18.366224 0.4300496 262.54001
0.80320227 -6.1340156 -2.090364 262.54001
0.86807704 -6.6294608 -2.0863147 262.54001
0.94651699 -7.2285023 -2.0904336 262.54001
1.0394778 -7.9384398 -2.0959089 262.54001
1.1534481 -8.8088255 -2.105006 262.54001
1.2788579 -9.7665739 -2.0936708 262.54001
1.4402264 -10.998937 -2.0899968 262.54001
1.6324953 -12.74362 -2.1108091 262.70001
1.9309568 -15.073477 -2.1357503 262.70001
2.215143 -17.291895 -2.038677 262.70001
2.7198238 -21.231546 -1.9969908 262.70001
3.6454763 -28.457394 -2.0061963 262.70001
0.6357165 -4.9625435 -2.0897632 262.70001
0.68128473 -5.3182592 -2.0936818 262.70001
0.72906661 -5.6912556 -2.0883751 262.70001
0.78582901 -6.1343551 -2.0897236 262.70001
0.84980333 -6.6337528 -2.0869105 262.70001
0.92657179 -7.2330246 -2.0909851 262.70001
1.0163221 -7.9336352 -2.093883 262.70001
1.1278557 -8.8042908 -2.1031616 262.70001
1.2523253 -9.7759285 -2.0949183 262.70001
1.4097557 -11.004865 -2.0903671 262.70001
1.5917182 -12.74281 -2.1098363 262.88
1.8833472 -15.077503 -2.1354721 262.88
2.2078354 -17.675259 -2.0830467 262.88
2.6560717 -21.263699 -1.9992203 262.88
3.5600135 -28.500381 -2.0084283 262.88
0.62080932 -4.9700098 -2.0920758 262.88
0.66503543 -5.3240709 -2.0951366 262.88
0.71164936 -5.6972475 -2.0897431 262.88
0.76608384 -6.1330333 -2.0884433 262.88
0.82848531 -6.6326008 -2.0857189 262.88
0.90360576 -7.2339921 -2.0904336 262.88
0.99235213 -7.9444685 -2.0959089 262.88
1.1006731 -8.8116531 -2.1040838 262.88
1.2213647 -9.777873 -2.0945024 262.88
1.3754196 -11.011189 -2.0907373 262.88
1.5553354 -12.759232 -2.1117818 263.04999
1.8383635 -15.081059 -2.1351938 263.04999
2.2089844 -18.121456 -2.1348498 263.04999
2.5994751 -21.324858 -2.0042365 263.04999
3.4795396 -28.544487 -2.0108001 263.04999
0.60606027 -4.9718299 -2.0920758 263.04999
0.6490103 -5.3241711 -2.0944092 263.04999
0.69542438 -5.7049308 -2.0917952 263.04999
0.74811268 -6.1371603 -2.0890834 263.04999
0.80810934 -6.629344 -2.0839317 263.04999
0.88237077 -7.2385497 -2.0909851 263.04999
0.96807373 -7.9416161 -2.0943894 263.04999
1.074759 -8.8168116 -2.1045449 263.04999
1.1923479 -9.7814541 -2.0945024 263.04999
1.3432184 -11.019124 -2.0914781 263.04999
1.5167723 -12.757911 -2.1108091 263.22
1.793609 -15.086447 -2.1351938 263.22
2.2007036 -18.510611 -2.1799164 263.22
2.5383077 -21.350273 -2.0059085 263.22
3.405195 -28.641857 -2.0169387 263.22
0.5908702 -4.9699411 -2.090534 263.22
0.63343024 -5.3279233 -2.0951366 263.22
0.67849451 -5.7069688 -2.0917952 263.22
0.72945267 -6.1355896 -2.0878029 263.22
0.78956312 -6.641192 -2.0869105 263.22
0.86088967 -7.2411356 -2.0909851 263.22
0.9449631 -7.9482961 -2.0954025 263.22
1.0481348 -8.8160963 -2.1036227 263.22
1.1635514 -9.786891 -2.0949183 263.22
1.3102862 -11.02111 -2.0911078 263.22
1.4787261 -12.780257 -2.1137273 263.39999
1.7466601 -15.095942 -2.1357503 263.39999
2.1509879 -18.590445 -2.1885114 263.39999
2.4778588 -21.415508 -2.0112963 263.39999
3.3204715 -28.697998 -2.0201476 263.39999
0.57546586 -4.9736061 -2.091305 263.39999
0.61711723 -5.3335886 -2.0965917 263.39999
0.66034621 -5.7072053 -2.0911112 263.39999
0.71060914 -6.1416154 -2.0890834 263.39999
0.76935363 -6.6493292 -2.0886977 263.39999
0.83835775 -7.2457142 -2.0915363 263.39999
0.91998816 -7.9512253 -2.0954025 263.39999
1.0211042 -8.8251457 -2.105006 263.39999
1.1327993 -9.7904987 -2.0949183 263.39999
1.2749782 -11.019315 -2.0899968 263.39999
1.441242 -12.78851 -2.1143758 263.57001
1.7016401 -15.09909 -2.1354721 263.57001
2.0962644 -18.600693 -2.188976 263.57001
2.1101213 -18.723648 -1.757887 263.57001
3.2395537 -28.745392 -2.0227983 263.57001
0.56153309 -4.9826274 -2.0943882 263.57001
0.60024631 -5.3261395 -2.0929544 263.57001
0.64340967 -5.7091393 -2.0911112 263.57001
0.69302011 -6.1493454 -2.0910041 263.57001
0.74876612 -6.6439939 -2.0863147 263.57001
0.81728625 -7.2519908 -2.0926387 263.57001
0.89660907 -7.955843 -2.0959089 263.57001
0.99491501 -8.8281364 -2.105006 263.57001
1.1039644 -9.7957602 -2.0953341 263.57001
1.2433782 -11.032814 -2.0918484 263.57001
1.4030762 -12.790769 -2.1140516 263.73999
1.6570487 -15.106041 -2.1357503 263.73999
2.0397663 -18.594982 -2.1875823 263.73999
2.0649805 -18.824841 -1.7668046 263.73999
3.1596889 -28.804459 -2.0262861 263.73999
0.54533827 -4.9714303 -2.0889924 263.73999
0.58505011 -5.3334527 -2.0951366 263.73999
0.62646753 -5.7110233 -2.0911112 263.73999
0.67477161 -6.1513743 -2.0910041 263.73999
0.72925788 -6.6480842 -2.0869105 263.73999
0.79576558 -7.2543836 -2.0926387 263.73999
0.87278873 -7.9565449 -2.0954025 263.73999
0.96829265 -8.8271809 -2.1040838 263.73999
1.0753217 -9.8028822 -2.0961657 263.73999
1.2110664 -11.040362 -2.0925889 263.73999
1.3679814 -12.800524 -2.1150243 263.89999
1.6146479 -15.10864 -2.1354721 263.89999
1.9871981 -18.594681 -2.1868854 263.89999
2.0071135 -18.781033 -1.7621601 263.89999
3.0847518 -28.86475 -2.0299134 263.89999
0.53262991 -4.9839439 -2.0936174 263.89999
0.57015407 -5.3350658 -2.0951366 263.89999
0.61051691 -5.7127504 -2.0911112 263.89999
0.65779245 -6.1551189 -2.0916443 263.89999
0.71069008 -6.650095 -2.0869105 263.89999
0.77509582 -7.2527542 -2.0915363 263.89999
0.85056651 -7.958951 -2.0954025 263.89999
0.94301838 -8.8240452 -2.1027005 263.89999
1.0479428 -9.8058472 -2.0961657 263.89999
1.1802312 -11.043701 -2.0925889 263.89999
1.3230873 -12.781433 -2.1111333 264.09
1.5639251 -15.108002 -2.1346371 264.09
1.9251159 -18.597218 -2.1864207 264.09
1.9399012 -18.740047 -1.7577012 264.09
2.9974387 -28.956186 -2.0356333 264.09
0.51533955 -4.9783401 -2.090534 264.09
0.55169189 -5.3295145 -2.0922267 264.09
0.59156942 -5.7147436 -2.0911112 264.09
0.63718265 -6.1553817 -2.0910041 264.09
0.6884371 -6.650516 -2.0863147 264.09
0.75143647 -7.2591095 -2.0926387 264.09
0.82536429 -7.9732747 -2.0984416 264.09
0.91435272 -8.8329306 -2.1040838 264.09
1.0158224 -9.8131599 -2.0969973 264.09
1.1440072 -11.051464 -2.0933297 264.09
1.2831239 -12.787491 -2.1114576 264.26999
1.5164543 -15.11284 -2.1346371 264.26999
1.86569 -18.59329 -2.1852593 264.26999
1.8877779 -18.813416 -1.7640178 264.26999
1.9845805 -19.778143 -1.3899674 264.26999
0.49951288 -4.9780979 -2.0897632 264.26999
0.53569007 -5.3386364 -2.0951366 264.26999
0.57361311 -5.7165742 -2.0911112 264.26999
0.61803097 -6.1592383 -2.0916443 264.26999
0.66754055 -6.6526461 -2.0863147 264.26999
0.72862768 -7.2614346 -2.0926387 264.26999
0.79992515 -7.9719782 -2.0974286 264.26999
0.88757032 -8.8454418 -2.1063895 264.26999
0.98498851 -9.8163023 -2.0969973 264.26999
1.1092824 -11.055003 -2.0933297 264.26999
1.2495166 -12.812631 -2.1150243 264.42999
1.4742454 -15.117016 -2.1346371 264.42999
1.8131821 -18.592497 -2.1845624 264.42999
1.8360068 -18.826542 -1.764761 264.42999
1.9415419 -19.908707 -1.3987569 264.42999
0.48596773 -4.9831471 -2.091305 264.42999
0.52114135 -5.3438201 -2.0965917 264.42999
0.55764723 -5.7181535 -2.0911112 264.42999
0.60082877 -6.1609402 -2.0916443 264.42999
0.64858967 -6.6506834 -2.0851233 264.42999
0.70834708 -7.2634406 -2.0926387 264.42999
0.77672112 -7.9645529 -2.0948961 264.42999
0.8621102 -8.8401384 -2.1045449 264.42999
0.9577623 -9.820962 -2.0974131 264.42999
1.0795513 -11.069795 -2.0955515 264.42999
1.2094438 -12.818458 -2.1153486 264.60999
1.4260026 -15.113686 -2.1335237 264.60999
1.752524 -18.574369 -2.1817746 264.60999
1.8125803 -19.210884 -1.8002456 264.60999
2.746515 -29.10932 -2.0445623 264.60999
0.47083041 -4.9901614 -2.0936174 264.60999
0.50435072 -5.3454309 -2.0965917 264.60999
0.53915077 -5.7142639 -2.0890591 264.60999
0.58147067 -6.1627975 -2.0916443 264.60999
0.62823075 -6.6583905 -2.0869105 264.60999
0.68534428 -7.2637162 -2.0920875 264.60999
0.75187767 -7.9688797 -2.0954025 264.60999
0.83524787 -8.8524904 -2.1068506 264.60999
0.9269042 -9.8239222 -2.0974131 264.60999
1.0444 -11.069219 -2.0948107 264.60999
1.1692507 -12.798406 -2.1114576 264.78
1.3811531 -15.11785 -2.1335237 264.78
1.6968629 -18.573553 -2.1810777 264.78
1.8003225 -19.706001 -1.8461343 264.78
2.1716714 -23.770718 -1.6691329 264.78
0.45568645 -4.9878607 -2.0920758 264.78
0.48848829 -5.3469038 -2.0965917 264.78
0.52270681 -5.7214532 -2.0911112 264.78
0.56335515 -6.1663823 -2.0922847 264.78
0.60812479 -6.6564226 -2.0857189 264.78
0.66431415 -7.2714615 -2.0937414 264.78
0.72752613 -7.9633684 -2.0933764 264.78
0.80827016 -8.8471775 -2.105006 264.78
0.89775199 -9.8266296 -2.0974131 264.78
1.0104796 -11.060525 -2.0925889 264.78
1.1311182 -12.825606 -2.1153486 264.95999
1.3326083 -15.110277 -2.1318536 264.95999
1.6371081 -18.562962 -2.1792195 264.95999
1.9805262 -22.456936 -2.1032591 264.95999
2.0734961 -23.51111 -1.6504382 264.95999
0.43985227 -4.9874291 -2.091305 264.95999
0.47119713 -5.3428445 -2.0944092 264.95999
0.5045647 -5.7211952 -2.0904272 264.95999
0.54381365 -6.1662345 -2.0916443 264.95999
0.58771324 -6.6640058 -2.0875063 264.95999
0.64112914 -7.2696824 -2.0926387 264.95999
0.70284492 -7.9694695 -2.0943894 264.95999
0.78149778 -8.8613043 -2.1077728 264.95999
0.86722004 -9.8332987 -2.0982447 264.95999
0.97693563 -11.07735 -2.0951812 264.95999
1.0956864 -12.806893 -2.1117818 265.10999
1.293214 -15.115687 -2.1321318 265.10999
1.5886741 -18.569162 -2.1794517 265.10999
1.9174837 -22.412441 -2.0986147 265.10999
1.9740113 -23.073164 -1.6193268 265.10999
0.42632177 -4.9830475 -2.0889924 265.10999
0.45720798 -5.3440599 -2.0944092 265.10999
0.48974511 -5.724369 -2.0911112 265.10999
0.52783018 -6.1695247 -2.0922847 265.10999
0.57010216 -6.6636195 -2.0869105 265.10999
0.62209499 -7.2713356 -2.0926387 265.10999
0.68197846 -7.971282 -2.0943894 265.10999
0.75746685 -8.8536253 -2.1054671 265.10999
0.84164035 -9.8374844 -2.0986607 265.10999
0.94809937 -11.081827 -2.0955515 265.10999
1.053373 -12.812424 -2.1121061 265.29999
1.242757 -15.115945 -2.1315751 265.29999
1.5264367 -18.56641 -2.1785226 265.29999
1.8485353 -22.484171 -2.1047454 265.29999
1.8587428 -22.608328 -1.5862622 265.29999
0.41070235 -4.9954691 -2.0936174 265.29999
0.44009453 -5.3529735 -2.0973191 265.29999
0.47075972 -5.7259617 -2.0911112 265.29999
0.50752366 -6.1731296 -2.0929248 265.29999
0.54831451 -6.6692791 -2.0881019 265.29999
0.5970338 -7.2618623 -2.0893312 265.29999
0.655541 -7.9734998 -2.0943894 265.29999
0.72810298 -8.8560886 -2.1054671 265.29999
0.80901349 -9.8402214 -2.0986607 265.29999
0.91166759 -11.088828 -2.096292 265.29999
1.0159767 -12.823362 -2.1134031 265.47
1.1975888 -15.115617 -2.1310186 265.47
1.4711856 -18.568876 -2.1782901 265.47
1.7774116 -22.433973 -2.0995436 265.47
1.7826725 -22.500376 -1.57831 265.47
0.39529565 -4.9893069 -2.090534 265.47
0.42332718 -5.3431125 -2.0929544 265.47
0.45421371 -5.7329535 -2.0931633 265.47
0.48890609 -6.1708307 -2.0916443 265.47
0.52837324 -6.668973 -2.0875063 265.47
0.576244 -7.2731843 -2.0920875 265.47
0.63157469 -7.9715524 -2.0933764 265.47
0.70213068 -8.8620892 -2.1063895 265.47
0.7799679 -9.8445282 -2.0990765 265.47
0.87891763 -11.093444 -2.0966623 265.47
0.97732443 -12.818449 -2.1121061 265.64001
1.1528852 -15.121078 -2.1312969 265.64001
1.4151781 -18.561275 -2.1768963 265.64001
1.709327 -22.419292 -2.0976856 265.64001
1.7169666 -22.519491 -1.5792866 265.64001
0.38105157 -4.9978185 -2.0936174 265.64001
0.40761364 -5.3462029 -2.0936818 265.64001
0.43705887 -5.7324023 -2.0924792 265.64001
0.47102687 -6.1779218 -2.093565 265.64001
0.50916427 -6.6781263 -2.0898893 265.64001
0.55480766 -7.2767792 -2.0926387 265.64001
0.60821402 -7.9772496 -2.0943894 265.64001
0.67598122 -8.8660746 -2.1068506 265.64001
0.75045776 -9.8428984 -2.0982447 265.64001
0.84614837 -11.097962 -2.0970325 265.64001
0.93776858 -12.831297 -2.1137273 265.82001
1.1046535 -15.11475 -2.1299052 265.82001
1.357004 -18.567612 -2.1771288 265.82001
1.6461439 -22.523853 -2.1069748 265.82001
1.7641509 -24.138519 -1.6924316 265.82001
0.36548313 -5.0008316 -2.0943882 265.82001
0.39108765 -5.3511729 -2.0951366 265.82001
0.41945881 -5.7393699 -2.0945313 265.82001
0.45147797 -6.1774817 -2.0929248 265.82001
0.48790351 -6.6758847 -2.0886977 265.82001
0.53166407 -7.2746515 -2.0915363 265.82001
0.58300877 -7.977191 -2.093883 265.82001
0.6482662 -8.8700953 -2.1073117 265.82001
0.71995956 -9.8510609 -2.0994923 265.82001
0.81142223 -11.102526 -2.097403 265.82001
0.89955527 -12.832054 -2.1134031 265.98999
1.0600793 -15.121912 -2.1304619 265.98999
1.3013513 -18.563629 -2.1761994 265.98999
1.5800035 -22.53857 -2.1079037 265.98999
1.7028472 -24.290924 -1.7027556 265.98999
0.35025659 -4.9963708 -2.0920758 265.98999
0.37481785 -5.3467345 -2.0929544 265.98999
0.40203366 -5.7349648 -2.0924792 265.98999
0.43314704 -6.1787939 -2.0929248 265.98999
0.46729255 -6.6658759 -2.0851233 265.98999
0.50980854 -7.2723613 -2.0904336 265.98999
0.55933744 -7.9788857 -2.093883 265.98999
0.62167311 -8.8680973 -2.1063895 265.98999
0.69059092 -9.851202 -2.0990765 265.98999
0.77847683 -11.104884 -2.097403 265.98999
0.86147791 -12.834667 -2.1134031 266.16
1.0142787 -15.111158 -2.1285133 266.16
1.2456011 -18.557499 -2.1750379 266.16
1.5176576 -22.610714 -2.1142204 266.16
1.6398531 -24.431234 -1.7122424 266.16
0.33580133 -5.002912 -2.0943882 266.16
0.35870263 -5.3441052 -2.0914993 266.16
0.38514179 -5.7380075 -2.0931633 266.16
0.41506609 -6.1838326 -2.0942054 266.16
0.44725674 -6.6634231 -2.0839317 266.16
0.48835754 -7.2757602 -2.0909851 266.16
0.5366978 -7.995954 -2.097935 266.16
0.59535825 -8.8699026 -2.1063895 266.16
0.66162086 -9.857111 -2.0999081 266.16
0.74591947 -11.113029 -2.0985138 266.16
0.82364559 -12.841105 -2.1140516 266.32999
0.96905822 -15.108171 -2.1276784 266.32999
1.1897715 -18.549219 -2.1736441 266.32999
1.4927549 -23.272903 -2.175715 266.32999
1.5844699 -24.702791 -1.7309371 266.32999
0.32048342 -4.9965196 -2.091305 266.32999
0.34296402 -5.3470054 -2.0922267 266.32999
0.36823541 -5.7410007 -2.0938473 266.32999
0.39647394 -6.1812553 -2.0929248 266.32999
0.42760625 -6.666626 -2.0845275 266.32999
0.46652168 -7.2733397 -2.0898824 266.32999
0.51210409 -7.9839954 -2.0943894 266.32999
0.56891358 -8.869688 -2.1059282 266.32999
0.63237137 -9.8590307 -2.0999081 266.32999
0.71256578 -11.109308 -2.097403 266.32999
0.78554165 -12.843493 -2.1140516 266.5
0.92422718 -15.110981 -2.1276784 266.5
1.134851 -18.554649 -2.1738765 266.5
1.4221159 -23.25139 -2.1732998 266.5
1.5190853 -24.836826 -1.7400055 266.5
0.30543172 -4.9937644 -2.0897632 266.5
0.32709765 -5.3479996 -2.0922267 266.5
0.35085574 -5.7364407 -2.0917952 266.5
0.37847906 -6.1880784 -2.0948455 266.5
0.40770757 -6.6659598 -2.0839317 266.5
0.44529134 -7.2804489 -2.0915363 266.5
0.4886491 -7.9893422 -2.0954025 266.5
0.54283178 -8.8752213 -2.1068506 266.5
0.60323572 -9.8628168 -2.1003239 266.5
0.67960072 -11.111374 -2.097403 266.5
0.74731624 -12.843797 -2.1137273 266.67001
0.87961805 -15.117611 -2.1282351 266.67001
1.079101 -18.546036 -2.1724827 266.67001
1.3525432 -23.245567 -2.1723709 266.67001
1.456396 -25.030441 -1.7532592 266.67001
0.29104239 -5.0020185 -2.0928466 266.67001
0.31155306 -5.354526 -2.0944092 266.67001
0.33416134 -5.7430849 -2.0938473 266.67001
0.35989693 -6.1853909 -2.093565 266.67001
0.3885929 -6.678576 -2.0875063 266.67001
0.42368788 -7.2817378 -2.0915363 266.67001
0.46505451 -7.9926882 -2.0959089 266.67001
0.51649612 -8.8767929 -2.1068506 266.67001
0.5736286 -9.8587036 -2.0990765 266.67001
0.64674383 -11.115303 -2.0977733 266.67001
0.70942229 -12.849898 -2.1143758 266.84
0.83465022 -15.118176 -2.1279566 266.84
1.0237406 -18.543207 -2.1717858 266.84
1.2844446 -23.265385 -2.173857 266.84
1.7417586 -31.5488 -2.2094665 266.84
0.27630159 -5.0047026 -2.0936174 266.84
0.29576722 -5.3572869 -2.0951366 266.84
0.31680903 -5.7384214 -2.0917952 266.84
0.34164739 -6.1883235 -2.0942054 266.84
0.36909121 -6.6854186 -2.0892935 266.84
0.40208068 -7.2829633 -2.0915363 266.84
0.44144437 -7.995965 -2.0964155 266.84
0.48940498 -8.8646841 -2.1036227 266.84
0.54383558 -9.8505964 -2.0969973 266.84
0.61376131 -11.117173 -2.0977733 266.84
0.66946006 -12.859947 -2.1156728 267.01999
0.7864303 -15.106879 -2.1260083 267.01999
0.96496409 -18.536411 -2.1706243 267.01999
1.2104162 -23.251408 -2.1721849 267.01999
1.6428441 -31.558102 -2.2097456 267.01999
2.5047326 -48.114487 -2.2468119 267.01999
0.26086533 -5.011075 -2.0959301 267.01999
0.27883852 -5.3563294 -2.0944092 267.01999
0.29887742 -5.7412653 -2.0924792 267.01999
0.32220453 -6.1893659 -2.0942054 267.01999
0.34838432 -6.692265 -2.0910807 267.01999
0.37909868 -7.2822704 -2.0909851 267.01999
0.41642275 -7.9992442 -2.0969219 267.01999
0.46216044 -8.8778391 -2.1063895 267.01999
0.51329321 -9.8600702 -2.0986607 267.01999
0.5786283 -11.115121 -2.0970325 267.01999
0.63091397 -12.853992 -2.1143758 267.19
0.74247772 -15.126949 -2.1285133 267.19
0.90927964 -18.525305 -2.1689982 267.19
1.1411299 -23.24893 -2.1716278 267.19
1.5493001 -31.564829 -2.2098851 267.19
0.24590558 -5.0099835 -2.0951591 267.19
3.3493059 -68.237442 -1.5861793 267.19
0.26312742 -5.3608546 -2.0958643 267.19
3.3477573 -68.205887 0 267.19
0.28220999 -5.7496352 -2.0952153 267.19
0.30374604 -6.1884022 -2.093565 267.19
0.32833928 -6.6894555 -2.0898893 267.19
0.35767862 -7.2872038 -2.0920875 267.19
0.39259186 -7.9985123 -2.0964155 267.19
0.43619898 -8.8869467 -2.1082339 267.19
0.48413146 -9.8635044 -2.0990765 267.19
0.54555023 -11.114826 -2.0966623 267.19
0.59098166 -12.865768 -2.1159971 267.37
0.69467878 -15.123272 -2.1276784 267.37
0.85125858 -18.53204 -2.1694627 267.37
1.0680857 -23.252399 -2.1716278 267.37
1.4503118 -31.573526 -2.2101641 267.37
0.23024975 -5.0125747 -2.0959301 267.37
0.24594258 -5.3542104 -2.0929544 267.37
0.2638869 -5.7448611 -2.0931633 267.37
0.28456396 -6.1950045 -2.0954859 267.37
0.30732214 -6.690454 -2.0898893 267.37
0.335401 -7.3017349 -2.0959466 267.37
0.36728433 -7.9958405 -2.0954025 267.37
0.4084563 -8.8921614 -2.1091561 267.37
0.45323178 -9.866931 -2.0994923 267.37
0.51099008 -11.124338 -2.0981436 267.37
0.5527209 -12.865494 -2.1156728 267.54001
0.64971912 -15.123287 -2.1273999 267.54001
0.79575765 -18.522575 -2.1680689 267.54001
0.99866241 -23.24552 -2.1706986 267.54001
1.3543129 -31.523872 -2.2063973 267.54001
0.21537614 -5.013236 -2.0959301 267.54001
0.23021519 -5.3586392 -2.0944092 267.54001
0.24700175 -5.7493744 -2.0945313 267.54001
0.26601914 -6.1920352 -2.0942054 267.54001
0.28697816 -6.6798916 -2.0863147 267.54001
0.31290969 -7.2834902 -2.0904336 267.54001
0.34355861 -7.9968953 -2.0954025 267.54001
0.38198745 -8.8913898 -2.108695 267.54001
0.42395407 -9.8682318 -2.0994923 267.54001
0.47815004 -11.129733 -2.0988841 267.54001
0.51253569 -12.873082 -2.1166453 267.72
0.60173208 -15.11338 -2.12573 267.72
0.73764247 -18.526968 -2.1683013 267.72
0.92507511 -23.234613 -2.1693983 267.72
1.2537632 -31.490095 -2.2037466 267.72
0.19911163 -5.0009799 -2.090534 267.72
0.21360177 -5.3649206 -2.0965917 267.72
0.22893837 -5.7501221 -2.0945313 267.72
0.24641424 -6.189054 -2.0929248 267.72
0.26652297 -6.6941142 -2.0904849 267.72
0.29071477 -7.3017263 -2.0953951 267.72
0.31858793 -8.0018015 -2.0964155 267.72
0.35397506 -8.8906012 -2.1082339 267.72
0.393417 -9.8812437 -2.1019871 267.72
0.44310445 -11.129216 -2.0985138 267.72
0.4765853 -12.874464 -2.1166453 267.88
0.55996484 -15.126877 -2.1273999 267.88
0.6858291 -18.526972 -2.1680689 267.88
0.85945165 -23.217207 -2.1675403 267.88
1.1668547 -31.521385 -2.2056997 267.88
0.18528204 -5.0052047 -2.0920758 267.88
0.19848144 -5.3617725 -2.0951366 267.88
3.6405835 -98.346642 0 267.88
0.21301918 -5.7544951 -2.0958993 267.88
0.22941057 -6.1972919 -2.0954859 267.88
0.2481816 -6.7043715 -2.0934637 267.88
0.27060786 -7.3101945 -2.0976002 267.88
0.29616991 -8.0007267 -2.0959089 267.88
0.32943442 -8.899334 -2.1100783 267.88
0.36603898 -9.8881683 -2.1032348 267.88
0.41267848 -11.148087 -2.1018467 267.88
0.43593624 -12.86998 -2.1156728 268.06
0.51237261 -15.126582 -2.1271217 268.06
0.62708366 -18.513151 -2.1662104 268.06
0.78610402 -23.207851 -2.1664257 268.06
1.067484 -31.514925 -2.2050021 268.06
0.16986921 -5.0149841 -2.0959301 268.06
0.18163598 -5.36237 -2.0951366 268.06
0.19474901 -5.7495008 -2.0938473 268.06
0.20974767 -6.1923008 -2.093565 268.06
0.22698873 -6.7013021 -2.0922723 268.06
0.24751075 -7.3071656 -2.0964978 268.06
0.27109894 -8.0035515 -2.0964155 268.06
0.30134302 -8.8964348 -2.1091561 268.06
0.33503887 -9.8912249 -2.1036506 268.06
0.37785336 -11.155221 -2.1029575 268.06
0.40011743 -12.875093 -2.1163213 268.22
0.47000626 -15.123995 -2.126565 268.22
0.57513601 -18.506889 -2.1652813 268.22
0.72160178 -23.219908 -2.1673546 268.22
0.97848219 -31.485878 -2.20277 268.22
0.15552014 -5.0043716 -2.091305 268.22
0.16660286 -5.3609939 -2.0944092 268.22
0.17875101 -5.7519007 -2.0945313 268.22
0.19257243 -6.19665 -2.0948455 268.22
0.20774058 -6.6847353 -2.0869105 268.22
0.22740294 -7.3174362 -2.0992541 268.22
0.24886799 -8.0081444 -2.0974286 268.22
0.27649835 -8.8972416 -2.1091561 268.22
0.30747685 -9.8940773 -2.1040664 268.22
0.34633437 -11.144446 -2.1007357 268.22
0.35972235 -12.878259 -2.1166453 268.39999
0.42260119 -15.129356 -2.1271217 268.39999
0.51665932 -18.496691 -2.1638875 268.39999
0.64837283 -23.212107 -2.1664257 268.39999
0.87956172 -31.488796 -2.20277 268.39999
0.13984923 -5.00668 -2.0920758 268.39999
0.14996807 -5.3689404 -2.0973191 268.39999
0.16041765 -5.7430406 -2.0911112 268.39999
0.17315707 -6.1991186 -2.0954859 268.39999
0.18673886 -6.6853547 -2.0869105 268.39999
0.20419873 -7.3104277 -2.097049 268.39999
0.22365445 -8.0069532 -2.0969219 268.39999
0.24854551 -8.8980665 -2.1091561 268.39999
0.27628297 -9.8910828 -2.1032348 268.39999
0.31170556 -11.159232 -2.1033278 268.39999
0.32385728 -12.883159 -2.1172938 268.56
0.3802509 -15.126517 -2.126565 268.56
0.46480522 -18.490118 -2.1629584 268.56
0.58329976 -23.203873 -2.1654968 268.56
0.791224 -31.475174 -2.2016537 268.56
0.1259138 -5.0088959 -2.0928466 268.56
0.13488096 -5.365613 -2.0958643 268.56
0.14466283 -5.7547388 -2.0952153 268.56
0.15594043 -6.2033663 -2.0967662 268.56
0.16869286 -6.7106624 -2.0946553 268.56
0.18383171 -7.3128915 -2.0976002 268.56
0.20129398 -8.0075464 -2.0969219 268.56
0.2238432 -8.904563 -2.1105394 268.56
0.24880829 -9.8976831 -2.1044822 268.56
0.28044316 -11.156129 -2.1025872 268.56
0.28100425 -12.878242 -2.1163213 268.75
0.32987145 -15.117795 -2.1251733 268.75
0.40348721 -18.491558 -2.1629584 268.75
0.50643665 -23.209661 -2.1658683 268.75
0.68749708 -31.507544 -2.2037466 268.75
0.10938352 -5.0129762 -2.0943882 268.75
0.11700593 -5.3623056 -2.0944092 268.75
0.12553763 -5.7533083 -2.0945313 268.75
0.13524447 -6.1981664 -2.0948455 268.75
0.14585549 -6.6844621 -2.0863147 268.75
0.1597061 -7.3192267 -2.0992541 268.75
0.17490771 -8.0159073 -2.098948 268.75
0.19431338 -8.9052563 -2.1105394 268.75
0.21589968 -9.8945427 -2.1036506 268.75
0.24357519 -11.162892 -2.103698 268.75
0.24515299 -12.884897 -2.1172938 268.91
0.28772873 -15.122618 -2.12573 268.91
0.35165861 -18.482681 -2.1617968 268.91
0.44146961 -23.203022 -2.1651251 268.91
0.59833229 -31.447502 -2.1994216 268.91
0.095243819 -5.0058813 -2.091305 268.91
0.10196023 -5.3588862 -2.0929544 268.91
0.1094709 -5.7536364 -2.0945313 268.91
0.11797146 -6.2004142 -2.0954859 268.91
0.1275879 -6.7058406 -2.0928679 268.91
0.13922979 -7.3177223 -2.0987029 268.91
0.15266965 -8.0241022 -2.1009741 268.91
0.16940746 -8.9038181 -2.1100783 268.91
0.18837975 -9.9009743 -2.104898 268.91
0.2124016 -11.163529 -2.103698 268.91
0.20461006 -12.881657 -2.1166453 269.09
0.24006101 -15.113545 -2.1243382 269.09
0.2934657 -18.47575 -2.1608677 269.09
0.36844659 -23.196329 -2.164382 269.09
0.4994075 -31.441248 -2.1988635 269.09
0.079604864 -5.0116916 -2.0936174 269.09
0.085242666 -5.366631 -2.0958643 269.09
0.091305256 -5.7483144 -2.0924792 269.09
0.09846165 -6.1988597 -2.0948455 269.09
0.10652029 -6.7062087 -2.0928679 269.09
0.11620931 -7.3162012 -2.0981514 269.09
0.12742975 -8.0226078 -2.1004674 269.09
0.14149632 -8.9081984 -2.1110005 269.09
0.15727404 -9.9015169 -2.104898 269.09
0.17729813 -11.162176 -2.1033278 269.09
0.16414021 -12.882236 -2.1166453 269.26999
0.19252884 -15.110264 -2.1237814 269.26999
0.235497 -18.48254 -2.1615646 269.26999
0.29531777 -23.17746 -2.1625242 269.26999
0.40055335 -31.436676 -2.1984451 269.26999
0.063836291 -5.0100718 -2.0928466 269.26999
0.068358772 -5.3650098 -2.0951366 269.26999
0.073269919 -5.750452 -2.0931633 269.26999
0.079059318 -6.2048225 -2.0967662 269.26999
0.085305676 -6.695056 -2.0892935 269.26999
0.09322425 -7.3165302 -2.0981514 269.26999
0.1022747 -8.0268373 -2.1014805 269.26999
0.11348494 -8.9066525 -2.1105394 269.26999
0.12619171 -9.9039183 -2.1053138 269.26999
0.14225534 -11.164643 -2.103698 269.26999
0.12818526 -12.884618 -2.1169696 269.42999
0.15031262 -15.108763 -2.1235032 269.42999
0.18368554 -18.463263 -2.1592414 269.42999
0.2307515 -23.194124 -2.1640105 269.42999
0.31264505 -31.425703 -2.197608 269.42999
0.049863663 -5.0120759 -2.0936174 269.42999
0.053358056 -5.363317 -2.0944092 269.42999
0.057286151 -5.7581515 -2.0958993 269.42999
0.061713055 -6.2031245 -2.0961261 269.42999
0.066704214 -6.7048135 -2.0922723 269.42999
0.072887935 -7.3263741 -2.100908 269.42999
0.079916917 -8.032896 -2.1029999 269.42999
0.088631824 -8.9088812 -2.1110005 269.42999
0.098553747 -9.906189 -2.1057296 269.42999
0.11111636 -11.168928 -2.1044388 269.42999
0.087706476 -12.884956 -2.1169696 269.60999
0.10292727 -15.121043 -2.1251733 269.60999
0.12568069 -18.463747 -2.1592414 269.60999
0.1576129 -23.154909 -2.1602948 269.60999
0.21393049 -31.428524 -2.1977475 269.60999
0.034155227 -5.0177441 -2.0959301 269.60999
0.036508463 -5.3634582 -2.0944092 269.60999
0.039183337 -5.7564235 -2.0952153 269.60999
0.042212196 -6.2013927 -2.0954859 269.60999
0.04565312 -6.7068992 -2.0928679 269.60999
0.049831871 -7.3207994 -2.0992541 269.60999
0.054719981 -8.0389118 -2.1045196 269.60999
0.06064336 -8.9091148 -2.1110005 269.60999
0.067432106 -9.9064493 -2.1057296 269.60999
0.076027654 -11.169222 -2.1044388 269.60999
0.04946813 -12.883186 -2.1166453 269.78
0.057978187 -15.099496 -2.1221116 269.78
0.070820898 -18.444176 -2.1569185 269.78
0.088780321 -23.121422 -2.1571364 269.78
0.01925298 -5.0141325 -2.0943882 269.78
0.020566013 -5.3560905 -2.0914993 269.78
0.022096321 -5.7546353 -2.0945313 269.78
0.023804856 -6.1995959 -2.0948455 269.78
0.025753178 -6.707005 -2.0928679 269.78
0.02813258 -7.3266826 -2.100908 269.78
0.030845558 -8.0332346 -2.1029999 269.78
0.034209255 -8.909256 -2.1110005 269.78
0.038038824 -9.9066057 -2.1057296 269.78
0.042902716 -11.173329 -2.1051793 269.78
0.011246228 -12.887224 -2.1172938 269.95001
0.013175163 -15.097621 -2.1218331 269.95001
0.016087027 -18.434372 -2.155757 269.95001
0.02020346 -23.151455 -2.1599233 269.95001
0.027427195 -31.429241 -2.1977475 269.95001
0.0043756878 -5.0141673 -2.0943882 269.95001
0.0046789823 -5.3617172 -2.0936818 269.95001
0.0050235428 -5.7565546 -2.0952153 269.95001
0.0054135146 -6.2034287 -2.0961261 269.95001
0.0058513423 -6.7051425 -2.0922723 269.95001
0.0063921055 -7.3248115 -2.1003566 269.95001
0.0070103705 -8.0332909 -2.1029999 269.95001
0.007774849 -8.909318 -2.1110005 269.95001
0.0086469147 -9.9086313 -2.1061454 269.95001
0.0097540701 -11.177338 -2.1059198 269.95001
-0.02473411 -12.883258 -2.1166453 270.10999
-0.028996753 -15.10354 -2.122668 270.10999
-0.035391446 -18.434345 -2.155757 270.10999
-0.04444759 -23.151421 -2.1599233 270.10999
-0.060251698 -31.383307 -2.1945386 270.10999
-0.0096335942 -5.0178509 -2.0959301 270.10999
-0.010300909 -5.3654351 -2.0951366 270.10999
-0.011055398 -5.7584257 -2.0958993 270.10999
-0.011913364 -6.2053146 -2.0967662 270.10999
-0.012887608 -6.7127695 -2.0946553 270.10999
-0.014058934 -7.3228779 -2.0998054 270.10999
-0.015419093 -8.0313444 -2.1024935 270.10999
-0.017119605 -8.9170895 -2.1128452 270.10999
-0.01903447 -9.9144859 -2.1073928 270.10999
-0.021474037 -11.185184 -2.1074011 270.10999
-0.06744606 -12.881131 -2.1163213 270.29999
-0.079081737 -15.103361 -2.122668 270.29999
-0.096469738 -18.424194 -2.1545954 270.29999
-0.12101169 -23.111319 -2.1562076 270.29999
-0.16443707 -31.404881 -2.1960733 270.29999
-0.026263671 -5.0159459 -2.0951591 270.29999
-0.028093277 -5.3653717 -2.0951366 270.29999
-0.030091923 -5.7470813 -2.0917952 270.29999
-0.032500785 -6.2071357 -2.0974066 270.29999
-0.035107899 -6.7050533 -2.0922723 270.29999
-0.038362529 -7.3266363 -2.100908 270.29999
-0.042031642 -8.027379 -2.1014805 270.29999
-0.046659075 -8.9111452 -2.1114616 270.29999
-0.051911984 -9.9143686 -2.1073928 270.29999
-0.058524158 -11.177189 -2.1059198 270.29999
-0.10568099 -12.882849 -2.1166453 270.47
-0.12387765 -15.10108 -2.1223898 270.47
-0.15105344 -18.413895 -2.153434 270.47
-0.18966539 -23.120815 -2.1571364 270.47
-0.2575509 -31.396275 -2.1955152 270.47
-0.041161284 -5.0176916 -2.0959301 270.47
-0.044043072 -5.3689904 -2.0965917 270.47
-0.047236197 -5.7582426 -2.0958993 270.47
-0.050886471 -6.2032228 -2.0961261 270.47
-0.055048991 -6.7106471 -2.0940595 270.47
-0.060053583 -7.3207226 -2.0992541 270.47
-0.06588088 -8.0310888 -2.1024935 270.47
-0.073082767 -8.9090223 -2.1110005 270.47
-0.081344284 -9.9161272 -2.1078088 270.47
-0.09168724 -11.176966 -2.1059198 270.47
-0.14392669 -12.884452 -2.1169696 270.64001
-0.16855012 -15.088763 -2.1207197 270.64001
-0.20571001 -18.415352 -2.1536663 270.64001
-0.25808737 -23.104219 -2.1556501 270.64001
-0.35030311 -31.359463 -2.1930041 270.64001
-0.055863347 -5.0009389 -2.0889924 270.64001
-0.059993781 -5.3706989 -2.0973191 270.64001
-0.064342007 -5.7599564 -2.0965834 270.64001
-0.069333881 -6.2068334 -2.0974066 270.64001
-0.074938282 -6.7085452 -2.0934637 270.64001
-0.081795782 -7.3224349 -2.0998054 270.64001
-0.08968766 -8.028923 -2.1019871 270.64001
-0.099537745 -8.9107122 -2.1114616 270.64001
-0.11076562 -9.9158421 -2.1078088 270.64001
-0.12489342 -11.180575 -2.1066606 270.64001
-0.18429063 -12.876042 -2.1156728 270.82001
-0.2161787 -15.104002 -2.1229465 270.82001
-0.26339185 -18.402697 -2.1522725 270.82001
-0.33072701 -23.107277 -2.1560218 270.82001
-0.44884846 -31.360201 -2.1931436 270.82001
-0.071785249 -5.015501 -2.0951591 270.82001
-0.076839343 -5.3686213 -2.0965917 270.82001
-0.082463995 -5.7616053 -2.0972676 270.82001
-0.088859968 -6.2084799 -2.0980468 270.82001
-0.09606804 -6.7120948 -2.0946553 270.82001
-0.10477193 -7.3202195 -2.0992541 270.82001
-0.11493848 -8.0305367 -2.1024935 270.82001
-0.12758674 -8.9142466 -2.1123838 270.82001
-0.14191656 -9.9154444 -2.1078088 270.82001
-0.16004568 -11.182093 -2.1070309 270.82001
-0.22480983 -12.879346 -2.1163213 271
-0.26362818 -15.103249 -2.1229465 271
-0.32116956 -18.399792 -2.1520402 271
-0.40304089 -23.090197 -2.1545355 271
-0.54764563 -31.374596 -2.1942596 271
-0.087380491 -5.0060248 -2.091305 271
-0.093639933 -5.3646278 -2.0951366 271
-0.10036737 -5.7500429 -2.0931633 271
-0.10833094 -6.2062755 -2.0974066 271
-0.116821 -6.6926703 -2.0886977 271
-0.12786919 -7.3256207 -2.100908 271
-0.14013277 -8.0282011 -2.1019871 271
-0.15555704 -8.9118567 -2.1119227 271
-0.17310023 -9.9169064 -2.1082246 271
-0.19514012 -11.17957 -2.1066606 271
-0.26302257 -12.878623 -2.1163213 271.17001
-0.30835831 -15.098439 -2.1223898 271.17001
-0.37547743 -18.384855 -2.150414 271.17001
-0.47146767 -23.084917 -2.1541641 271.17001
-0.63951123 -31.312992 -2.1900742 271.17001
-0.10249703 -5.0186591 -2.0967009 271.17001
-0.10974687 -5.3736396 -2.0987742 271.17001
-0.1173125 -5.7440829 -2.0911112 271.17001
-0.12674482 -6.2059269 -2.0974066 271.17001
-0.13679495 -6.6980209 -2.0904849 271.17001
-0.14968266 -7.3290534 -2.1020105 271.17001
-0.16403128 -8.0316191 -2.1029999 271.17001
-0.1820778 -8.915247 -2.1128452 271.17001
-0.20248353 -9.9143925 -2.1078088 271.17001
-0.22830966 -11.178942 -2.1066606 271.17001
-0.29884797 -12.871919 -2.1153486 271.32999
-0.35061181 -15.10148 -2.1229465 271.32999
-0.42686221 -18.385721 -2.1506462 271.32999
-0.53560746 -23.069574 -2.1528635 271.32999
-0.72704357 -31.315073 -2.1903534 271.32999
-0.11625434 -5.0072837 -2.0920758 271.32999
-0.12457949 -5.3658624 -2.0958643 271.32999
-0.13326529 -5.739975 -2.0897431 271.32999
-0.14407453 -6.2055483 -2.0974066 271.32999
-0.15576468 -6.709065 -2.0940595 271.32999
-0.17005938 -7.3247628 -2.100908 271.32999
-0.18645912 -8.0311298 -2.1029999 271.32999
-0.20701829 -8.9166498 -2.1133063 271.32999
-0.23021433 -9.9157448 -2.1082246 271.32999
-0.25957185 -11.180225 -2.1070309 271.32999
-0.33938876 -12.874862 -2.1159971 271.51001
-0.3974264 -15.076546 -2.1196063 271.51001
-0.48435873 -18.374361 -2.1494849 271.51001
-0.60792249 -23.061806 -2.1523061 271.51001
-0.82699627 -31.372467 -2.1945386 271.51001
-0.13193597 -5.0050488 -2.091305 271.51001
-0.1414362 -5.3654442 -2.0958643 271.51001
-0.15144584 -5.7451644 -2.0917952 271.51001
-0.16361901 -6.2069592 -2.0980468 271.51001
-0.17684104 -6.7085423 -2.0940595 271.51001
-0.19296861 -7.3203487 -2.0998054 271.51001
-0.21163772 -8.0285702 -2.1024935 271.51001
-0.23492713 -8.9120646 -2.1123838 271.51001
-0.26141593 -9.9169283 -2.1086404 271.51001
-0.29469422 -11.179355 -2.1070309 271.51001
-0.37534079 -12.873864 -2.1159971 271.67001
-0.43935332 -15.069438 -2.1187713 271.67001
-0.53549397 -18.36698 -2.148788 271.67001
-0.67197251 -23.048075 -2.1511915 271.67001
-0.91058946 -31.23243 -2.1849122 271.67001
-0.14601973 -5.0083504 -2.0928466 271.67001
-0.15631019 -5.3613043 -2.0944092 271.67001
-0.16732444 -5.7390833 -2.0897431 271.67001
-0.18089624 -6.2045841 -2.0974066 271.67001
-0.19540718 -6.7022972 -2.0922723 271.67001
-0.21352215 -7.3236246 -2.100908 271.67001
-0.23416963 -8.0318155 -2.1035066 271.67001
-0.25975665 -8.9094276 -2.1119227 271.67001
-0.28905115 -9.9142036 -2.1082246 271.67001
-0.32591167 -11.178489 -2.1070309 271.67001
-0.41552848 -12.864732 -2.1147001 271.85001
-0.48675704 -15.069963 -2.1190495 271.85001
-0.59325695 -18.367193 -2.1490202 271.85001
-0.7441839 -23.039881 -2.1506341 271.85001
-1.0081891 -31.213463 -2.1837962 271.85001
-0.16181275 -5.0097113 -2.0936174 271.85001
-0.17333286 -5.3663726 -2.0965917 271.85001
-0.18541412 -5.7404075 -2.0904272 271.85001
-0.20044877 -6.2058792 -2.0980468 271.85001
-0.21646208 -6.7016501 -2.0922723 271.85001
-0.23659097 -7.3248391 -2.1014593 271.85001
-0.25933868 -8.0291061 -2.1029999 271.85001
-0.28793359 -8.914403 -2.1133063 271.85001
-0.32032236 -9.9171572 -2.1090562 271.85001
-0.36109173 -11.179374 -2.1074011 271.85001
-0.453697 -12.863442 -2.1147001 272.01999
-0.53118908 -15.060534 -2.1179361 272.01999
-0.64712065 -18.347485 -2.1469295 272.01999
-0.81240082 -23.03359 -2.1502626 272.01999
-1.0996013 -31.176437 -2.1814244 272.01999
-0.17635088 -4.9999876 -2.0897632 272.01999
-0.18918875 -5.3639727 -2.0958643 272.01999
-0.20224667 -5.7341976 -2.0883751 272.01999
-0.21872748 -6.2014699 -2.0967662 272.01999
-0.23641258 -6.7028866 -2.0928679 272.01999
-0.25811982 -7.3183413 -2.0998054 272.01999
-0.28322852 -8.0302353 -2.1035066 272.01999
-0.31417605 -8.9076748 -2.1119227 272.01999
-0.34967676 -9.9142084 -2.1086404 272.01999
-0.3944678 -11.184146 -2.1085122 272.01999
-0.49410641 -12.861953 -2.1147001 272.20001
-0.57941276 -15.082541 -2.1212764 272.20001
-0.70460516 -18.341391 -2.1464648 272.20001
-0.88430023 -23.018986 -2.1491477 272.20001
-1.1976159 -31.174822 -2.1815639 272.20001
-0.19255382 -5.0123177 -2.0951591 272.20001
-0.20611072 -5.3652139 -2.0965917 272.20001
-0.2204766 -5.7391682 -2.0904272 272.20001
-0.23835434 -6.2045388 -2.0980468 272.20001
-0.25724927 -6.6963873 -2.0910807 272.20001
-0.28103596 -7.3155727 -2.0992541 272.20001
-0.30852908 -8.0312395 -2.104013 272.20001
-0.34215876 -8.9066439 -2.1119227 272.20001
-0.38089648 -9.9150152 -2.1090562 272.20001
-0.42945093 -11.178924 -2.1077714 272.20001
-0.53010303 -12.862495 -2.1150243 272.35999
-0.62071329 -15.061075 -2.1184928 272.35999
-0.75606656 -18.345306 -2.1471617 272.35999
-0.95005381 -23.05224 -2.1524918 272.35999
-1.2851605 -31.183317 -2.1824009 272.35999
-0.20647408 -5.0099163 -2.0943882 272.35999
-0.22101568 -5.3627558 -2.0958643 272.35999
-0.23665728 -5.7422853 -2.0917952 272.35999
-0.2556017 -6.2019558 -2.0974066 272.35999
-0.27657703 -6.7109036 -2.0958467 272.35999
-0.30130544 -7.3109179 -2.0981514 272.35999
-0.33079597 -8.0264797 -2.1029999 272.35999
-0.36718971 -8.909543 -2.1128452 272.35999
-0.4085829 -9.9139137 -2.1090562 272.35999
-0.46058571 -11.175716 -2.1074011 272.35999
-0.57042164 -12.858794 -2.1147001 272.54001
-0.66767484 -15.051137 -2.1173797 272.54001
-0.81334406 -18.334902 -2.1462326 272.54001
-1.0206165 -23.007364 -2.1485906 272.54001
-0.22180323 -5.0000248 -2.090534 272.54001
-0.23794472 -5.3638959 -2.0965917 272.54001
-0.25477928 -5.743391 -2.0924792 272.54001
-0.27516842 -6.2030153 -2.0980468 272.54001
-0.2973201 -6.7023721 -2.0934637 272.54001
-0.32461265 -7.3176179 -2.1003566 272.54001
-0.35609597 -8.0273342 -2.1035066 272.54001
-0.39483303 -8.900569 -2.1110005 272.54001
-0.43981302 -9.9145355 -2.109472 272.54001
-0.49569294 -11.174214 -2.1074011 272.54001
-0.61072218 -12.854968 -2.1143758 272.72
-0.71495599 -15.048965 -2.1173797 272.72
-0.87103504 -18.33424 -2.1464648 272.72
-1.0924186 -22.994099 -2.1476614 272.72
-1.4765198 -31.078968 -2.1757045 272.72
-0.23759772 -5.0011468 -2.091305 272.72
-0.25470629 -5.3612614 -2.0958643 272.72
-0.27308896 -5.7481942 -2.0945313 272.72
-0.29465437 -6.2021203 -2.0980468 272.72
-0.31864652 -6.7071261 -2.0952508 272.72
-0.34778243 -7.3204026 -2.1014593 272.72
-0.38112915 -8.0223103 -2.1024935 272.72
-0.42325476 -8.9090042 -2.1133063 272.72
-0.47095823 -9.913105 -2.109472 272.72
-0.53107506 -11.178492 -2.1085122 272.72
-0.64641929 -12.84927 -2.1137273 272.88
-0.75677878 -15.042953 -2.116823 272.88
-0.92183119 -18.323801 -2.1455357 272.88
-1.1565259 -22.98897 -2.1474757 272.88
-1.5629019 -31.066753 -2.1751463 272.88
-0.25146988 -4.9986205 -2.090534 272.88
-0.26977035 -5.3623896 -2.0965917 272.88
-0.28828999 -5.730516 -2.0883751 272.88
-0.31187758 -6.1993809 -2.0974066 272.88
-0.33737507 -6.7062101 -2.0952508 272.88
-0.36803028 -7.3155627 -2.1003566 272.88
-0.40353015 -8.0212145 -2.1024935 272.88
-0.44783837 -8.9019566 -2.1119227 272.88
-0.49883553 -9.915658 -2.1103036 272.88
-0.56238794 -11.178928 -2.1088824 272.88
-0.68730992 -12.85703 -2.1153486 273.06
-0.80413955 -15.04248 -2.1171012 273.06
-0.97971058 -18.326765 -2.1462326 273.06
-1.2274663 -22.961361 -2.1452463 273.06
-1.6597476 -31.047745 -2.1741698 273.06
-0.26776335 -5.008863 -2.0951591 273.06
-0.28631708 -5.3559346 -2.0944092 273.06
-0.30699375 -5.7427192 -2.0931633 273.06
-0.33114964 -6.1945863 -2.0961261 273.06
