# .PCD v0.7 - Point Cloud Data file format
VERSION 0.7
FIELDS x y z intensity
SIZE 4 4 4 4
TYPE F F F F
COUNT 1 1 1 1
WIDTH 1225
HEIGHT 1
VIEWPOINT 0 0 0 1 0 0 0
POINTS 1225
DATA ascii
2.3586659 -3.460269 -1.8644807 235.72
13.090061 -19.203709 -1.08381 235.72
2.4562058 -3.6033642 -1.8215089 235.72
2.6631558 -3.9069693 -1.8463392 235.72
24.623623 -36.123962 0 235.72
2.5817804 -3.7875879 -1.6683743 235.72
24.533653 -35.99197 1.0112944 235.72
2.6391804 -3.8717964 -1.5832987 235.72
24.526001 -35.980747 2.0306647 235.72
2.7163062 -3.9849432 -1.5048633 235.72
24.50296 -35.946945 3.0420799 235.72
4.1007056 -6.0159197 -2.0876772 235.72
24.498089 -35.939796 4.0578914 235.72
4.4407425 -6.5147686 -2.0639994 235.72
24.479338 -35.912289 5.0825224 235.72
4.8076091 -7.052979 -2.0224659 235.72
24.438648 -35.852596 6.0980086 235.72
5.3219795 -7.8075833 -2.0084269 235.72
5.9146924 -8.6771202 -1.9785353 235.72
6.5690265 -9.6951208 -1.9240463 235.88
6.4812136 -9.5655184 -1.6238717 235.88
6.81706 -10.061189 -1.4212199 235.88
10.369161 -15.303677 -1.7246317 235.88
12.210753 -18.021654 -1.5222257 235.88
2.4125357 -3.5606225 -1.9149162 235.88
13.058796 -19.273266 -1.0856733 235.88
2.4606264 -3.6315987 -1.8323007 235.88
14.326728 -21.144587 -0.59298939 235.88
2.5027988 -3.6938403 -1.7423099 235.88
24.64381 -36.371403 0 235.88
2.6312828 -3.8834677 -1.7073646 235.88
24.558662 -36.245735 1.0164936 235.88
2.7303891 -4.029737 -1.6447611 235.88
24.564388 -36.254185 2.0422175 235.88
2.7062385 -3.9940934 -1.505459 235.88
24.512156 -36.177094 3.055752 235.88
4.0795765 -6.0209813 -2.0854723 235.88
24.522736 -36.192707 4.0786991 235.88
4.4312148 -6.5399585 -2.0680513 235.88
24.497068 -36.154827 5.1071463 235.88
4.798811 -7.0824881 -2.027077 235.88
24.466192 -36.109257 6.1300182 235.88
5.2924747 -7.8110776 -2.0055161 235.88
5.8926435 -8.6968575 -1.9792759 235.88
6.5632787 -9.7561502 -1.931828 236.07001
6.4516683 -9.5902443 -1.6244284 236.07001
9.044508 -13.444437 -1.8948824 236.07001
10.322801 -15.344586 -1.7253748 236.07001
12.17097 -18.091845 -1.524737 236.07001
2.4109135 -3.5837629 -1.9230509 236.07001
13.066181 -19.422554 -1.0916361 236.07001
2.4372387 -3.6228948 -1.8238214 236.07001
14.30787 -21.268293 -0.59512478 236.07001
2.5394106 -3.7747705 -1.7765013 236.07001
24.64698 -36.637123 0 236.07001
2.5124378 -3.7346764 -1.6382765 236.07001
24.574492 -36.529373 1.022157 236.07001
2.6027887 -3.8689806 -1.5756158 236.07001
24.576733 -36.5327 2.0533042 236.07001
2.6535485 -3.9444337 -1.4834162 236.07001
24.508986 -36.431999 3.070401 236.07001
4.059588 -6.0344768 -2.0854723 236.07001
24.519291 -36.447319 4.0982065 236.07001
4.4041033 -6.5465903 -2.0655189 236.07001
24.494574 -36.410576 5.1317701 236.07001
4.7850747 -7.112895 -2.0312271 236.07001
24.462391 -36.362736 6.1592445 236.07001
5.2588992 -7.8172231 -2.0026054 236.07001
5.8626742 -8.7147188 -1.9789056 236.07001
6.5261354 -9.759675 -1.9289099 236.23
6.4655957 -9.6691399 -1.6347272 236.23
9.0455761 -13.527437 -1.903013 236.23
10.300941 -15.404805 -1.7289047 236.23
12.139254 -18.153955 -1.5271087 236.23
2.4648795 -3.6861668 -1.9742997 236.23
13.285079 -19.86751 -1.1145551 236.23
2.4445512 -3.6557665 -1.8369257 236.23
14.220636 -21.266613 -0.59396422 236.23
2.4801877 -3.70906 -1.7423099 236.23
24.656857 -36.873726 0 236.23
2.4779713 -3.7057452 -1.6225436 236.23
24.579084 -36.757416 1.0266135 236.23
2.5814421 -3.8604832 -1.5692135 236.23
24.595663 -36.782211 2.0634594 236.23
2.6393394 -3.9470673 -1.481629 236.23
24.535799 -36.692684 3.0865846 236.23
4.0405836 -6.042593 -2.0843697 236.23
24.525894 -36.677872 4.1164131 236.23
4.3890309 -6.5636883 -2.0670383 236.23
24.515366 -36.662128 5.1575556 236.23
4.7695203 -7.1327004 -2.0330715 236.23
24.484053 -36.615299 6.1904197 236.23
5.2337866 -7.8269992 -2.001358 236.23
5.8394074 -8.7326908 -1.9792759 236.23
6.492167 -9.775198 -1.9279372 236.41
6.3661566 -9.5854654 -1.6171914 236.41
10.293259 -15.498467 -1.7357787 236.41
12.085473 -18.196989 -1.5275272 236.41
2.4401462 -3.6741064 -1.9637245 236.41
12.269836 -18.474585 -1.0342453 236.41
2.4667475 -3.7141597 -1.8623637 236.41
14.230083 -21.426109 -0.59716731 236.41
2.3943129 -3.6050954 -1.6899315 236.41
24.664822 -37.1376 0 236.41
2.5557368 -3.8481498 -1.681371 236.41
24.595123 -37.032658 1.0321376 236.41
2.5598669 -3.8543687 -1.5634514 236.41
24.625887 -37.078976 2.0757575 236.41
3.6462202 -5.4900813 -2.0565271 236.41
24.5352 -36.942429 3.1010938 236.41
4.0268984 -6.0632648 -2.087126 236.41
24.53504 -36.942188 4.1374068 236.41
4.3780227 -6.5919499 -2.0715969 236.41
24.525354 -36.927608 5.1840382 236.41
4.7535491 -7.1573763 -2.0358384 236.41
24.494911 -36.881767 6.2224293 236.41
5.213501 -7.8499217 -2.0030212 236.41
5.8152065 -8.7559042 -1.9803869 236.41
6.557261 -9.9332876 -1.9554976 236.57001
7.6530638 -11.593267 -1.9523202 236.57001
8.3424425 -12.637575 -1.7708335 236.57001
10.29053 -15.588641 -1.7426527 236.57001
12.07418 -18.290609 -1.5325497 236.57001
2.4308832 -3.682431 -1.964538 236.57001
12.260022 -18.572134 -1.0377855 236.57001
2.505168 -3.7949615 -1.8993644 236.57001
2.3914208 -3.6226511 -1.6950238 236.57001
24.684423 -37.393272 0 236.57001
2.5605114 -3.8787987 -1.6916317 236.57001
24.633711 -37.316452 1.038126 236.57001
2.5856283 -3.9168472 -1.5858595 236.57001
24.653223 -37.346012 2.0868444 236.57001
3.6340301 -5.505022 -2.0583146 236.57001
24.566038 -37.21394 3.1181145 236.57001
4.0004182 -6.0600462 -2.0821645 236.57001
24.55246 -37.193367 4.1578431 236.57001
4.3745203 -6.6267557 -2.0786879 236.57001
24.539236 -37.173336 5.2088943 236.57001
4.75177 -7.1982331 -2.0436773 236.57001
24.508572 -37.126884 6.2522125 236.57001
5.1980262 -7.8742456 -2.0055161 236.57001
5.7961464 -8.7803106 -1.9822383 236.57001
6.542254 -9.9785957 -1.9603612 236.75
7.6133471 -11.612284 -1.9514853 236.75
8.2841835 -12.63548 -1.7668844 236.75
10.300466 -15.710822 -1.7526851 236.75
12.018847 -18.331787 -1.5328288 236.75
2.4183006 -3.6885216 -1.9637245 236.75
12.425076 -18.951391 -1.0567917 236.75
2.4800792 -3.7827494 -1.8893433 236.75
14.030333 -21.399813 -0.59410352 236.75
2.4270158 -3.7018142 -1.7284878 236.75
24.66552 -37.62117 0 236.75
2.531826 -3.8616765 -1.680687 236.75
24.643526 -37.587624 1.0435109 236.75
2.5660384 -3.9138589 -1.5813779 236.75
24.668318 -37.625439 2.0981176 236.75
3.6282327 -5.5339746 -2.0648677 236.75
24.569336 -37.474464 3.1334608 236.75
3.9803064 -6.0709763 -2.0816133 236.75
24.564329 -37.466827 4.1797657 236.75
4.356863 -6.6453199 -2.0802073 236.75
24.549765 -37.444614 5.2360735 236.75
4.7387362 -7.2277737 -2.0478272 236.75
24.51235 -37.387547 6.2831087 236.75
5.1861343 -7.9101691 -2.0105062 236.75
5.7825432 -8.8198442 -1.9870523 236.75
6.5139518 -9.992382 -1.9597127 236.89999
7.5958991 -11.652085 -1.9548254 236.89999
10.252775 -15.727725 -1.7515703 236.89999
11.983888 -18.383245 -1.5345029 236.89999
2.4116292 -3.6994319 -1.9661649 236.89999
2.4369094 -3.7382114 -1.8639054 236.89999
13.964433 -21.421396 -0.59368569 236.89999
2.440716 -3.744051 -1.7452198 236.89999
24.644489 -37.804569 0 236.89999
2.5073388 -3.8462498 -1.6711104 236.89999
24.679342 -37.858036 1.0492208 236.89999
2.559922 -3.9269123 -1.5839388 236.89999
24.718109 -37.917503 2.1107883 236.89999
2.5554698 -3.9200826 -1.460182 236.89999
24.592083 -37.724178 3.1489468 236.89999
3.9622991 -6.0781546 -2.0805109 236.89999
24.58143 -37.70784 4.1994586 236.89999
4.3426204 -6.6615663 -2.081727 236.89999
24.573149 -37.695133 5.2620912 236.89999
4.7261739 -7.2499366 -2.0505941 236.89999
24.551744 -37.6623 6.3184586 236.89999
5.1654077 -7.9237194 -2.0105062 236.89999
5.7572861 -8.8316593 -1.9863117 236.89999
6.4711299 -9.9990168 -1.9567946 237.09
7.549685 -11.665571 -1.9528769 237.09
7.6024985 -11.747177 -1.6363311 237.09
10.211383 -15.778356 -1.7534282 237.09
12.049688 -18.618856 -1.550826 237.09
2.3983555 -3.7058749 -1.9653515 237.09
12.070341 -18.650768 -1.0360154 237.09
2.3853948 -3.6858482 -1.8338424 237.09
13.877025 -21.442408 -0.59298939 237.09
2.4120915 -3.7270994 -1.7335801 237.09
24.604834 -38.01873 0 237.09
2.4026706 -3.7125423 -1.6095468 237.09
24.631882 -38.060524 1.0525631 237.09
2.5376205 -3.9210637 -1.5781767 237.09
24.588978 -37.994232 2.1105087 237.09
2.5466053 -3.9349465 -1.4625649 237.09
24.582838 -37.984745 3.1638746 237.09
3.9368987 -6.0831904 -2.0777545 237.09
24.586084 -37.989761 4.2217526 237.09
4.3257618 -6.6840515 -2.0842595 237.09
24.579685 -37.979874 5.290432 237.09
4.7073932 -7.2737384 -2.0528996 237.09
24.552618 -37.938046 6.3510251 237.09
5.1486692 -7.955586 -2.0142484 237.09
5.7290354 -8.8523521 -1.9866819 237.09
6.4332829 -10.009336 -1.9548491 237.27
7.5183535 -11.697562 -1.9542687 237.27
9.4446907 -14.694688 -1.6296961 237.27
11.941514 -18.579414 -1.5444083 237.27
2.3926287 -3.7226131 -1.9702322 237.27
12.167235 -18.930607 -1.0494314 237.27
2.4007447 -3.7352407 -1.8546553 237.27
12.902575 -20.074697 -0.55404168 237.27
2.4114509 -3.7518981 -1.7415824 237.27
24.533936 -38.171551 0 237.27
2.3483171 -3.6536705 -1.5808171 237.27
24.699215 -38.428707 1.0605941 237.27
24.600197 -38.274647 2.1217818 237.27
3.5530846 -5.5281291 -2.0505698 237.27
24.594988 -38.266544 3.1808951 237.27
3.9136107 -6.0890598 -2.0755494 237.27
24.585051 -38.251083 4.2421889 237.27
4.3078804 -6.7024913 -2.085779 237.27
24.576244 -38.237381 5.3155208 237.27
4.6939888 -7.303225 -2.0570498 237.27
24.554316 -38.203262 6.3824782 237.27
5.1321125 -7.9848876 -2.017575 237.27
5.7065101 -8.8785744 -1.9885335 237.27
6.4063687 -10.028925 -1.9551734 237.42999
7.4856586 -11.718512 -1.9542687 237.42999
8.7998619 -13.775846 -1.9116082 237.42999
9.1484814 -14.321598 -1.5854795 237.42999
11.914288 -18.65136 -1.5476171 237.42999
2.3891089 -3.7400584 -1.9759266 237.42999
12.087437 -18.922419 -1.0471022 237.42999
2.4012327 -3.759038 -1.8631345 237.42999
2.4129992 -3.7774577 -1.7503121 237.42999
2.3330464 -3.6522949 -1.5773969 237.42999
24.729582 -38.713211 1.0665359 237.42999
2.5153282 -3.9376497 -1.578817 237.42999
24.587862 -38.491356 2.1299806 237.42999
3.5314665 -5.5283756 -2.0469952 237.42999
24.614769 -38.533478 3.1973577 237.42999
3.9017663 -6.1080656 -2.0783057 237.42999
24.608923 -38.524326 4.2648544 237.42999
4.293313 -6.7210169 -2.087805 237.42999
24.598763 -38.508423 5.3436289 237.42999
4.6777668 -7.322865 -2.0588942 237.42999
24.57761 -38.475307 6.4164367 237.42999
5.1192727 -8.0140257 -2.0213175 237.42999
5.6806364 -8.8928185 -1.9881632 237.42999
6.3790593 -10.055668 -1.9564704 237.61
8.7916555 -13.858779 -1.9192741 237.61
11.903728 -18.764511 -1.5538952 237.61
2.3802836 -3.7521741 -1.9783671 237.61
12.111405 -19.091887 -1.0543693 237.61
2.3913889 -3.7696798 -1.8646762 237.61
2.5019152 -3.9439087 -1.8237875 237.61
24.280205 -38.274246 0 237.61
2.3477364 -3.7008681 -1.5951819 237.61
24.732082 -38.986565 1.0719209 237.61
24.59417 -38.769165 2.1410675 237.61
3.5273767 -5.560401 -2.05474 237.61
24.632528 -38.829632 3.2154944 237.61
3.8856475 -6.1251636 -2.0799594 237.61
24.613647 -38.79987 4.286777 237.61
4.2752862 -6.7393732 -2.0893245 237.61
24.605356 -38.7868 5.3715053 237.61
4.6505685 -7.3309512 -2.0570498 237.61
24.579683 -38.74633 6.4487247 237.61
5.0919747 -8.0267649 -2.0204859 237.61
5.6653047 -8.9305363 -1.9926069 237.61
6.3491955 -10.074551 -1.9564704 237.78
7.1488876 -11.343457 -1.8844038 237.78
8.814045 -13.985637 -1.9332123 237.78
8.9419117 -14.188529 -1.5646718 237.78
11.895868 -18.875702 -1.5601733 237.78
2.3330965 -3.7020278 -1.9482685 237.78
12.032337 -19.092243 -1.0524127 237.78
2.3713379 -3.762707 -1.8577386 237.78
20.326488 -32.252945 -0.88512045 237.78
2.4445105 -3.8788135 -1.7903234 237.78
2.3407536 -3.7141776 -1.5979182 237.78
24.7293 -39.239079 1.0768416 237.78
3.1983886 -5.0750256 -2.0269809 237.78
24.612179 -39.053238 2.1527133 237.78
3.5006838 -5.5546904 -2.0487826 237.78
24.634222 -39.088215 3.2308409 237.78
3.8643816 -6.1317859 -2.0783057 237.78
24.626886 -39.076576 4.309257 237.78
4.2480502 -6.7405705 -2.085779 237.78
24.617262 -39.061302 5.3993812 237.78
4.6194582 -7.3298993 -2.0528996 237.78
24.598721 -39.031883 6.4840746 237.78
5.072309 -8.0484581 -2.0221491 237.78
5.6251597 -8.9256907 -1.9877928 237.78
6.3279839 -10.111176 -1.9597127 237.96001
7.2298431 -11.552214 -1.9153003 237.96001
8.7869263 -14.0402 -1.936929 237.96001
8.867713 -14.169286 -1.5594698 237.96001
11.868262 -18.963718 -1.5643587 237.96001
2.3641036 -3.7774858 -1.9840614 237.96001
11.87373 -18.972452 -1.0437483 237.96001
2.5092995 -4.0094872 -1.9756781 237.96001
12.974929 -20.732006 -0.56782889 237.96001
2.383884 -3.809092 -1.7546771 237.96001
23.71279 -37.889507 0 237.96001
2.3470201 -3.7501891 -1.6102308 237.96001
24.721525 -39.50132 1.0819016 237.96001
3.18645 -5.0914731 -2.0295417 237.96001
24.626091 -39.348831 2.1647317 237.96001
3.4882803 -5.5737529 -2.0517612 237.96001
24.648899 -39.385273 3.2489774 237.96001
3.8379595 -6.1324883 -2.0744467 237.96001
24.639227 -39.36982 4.3330374 237.96001
4.2176156 -6.7391219 -2.0812204 237.96001
24.630371 -39.355667 5.4293485 237.96001
4.592278 -7.3377771 -2.0510552 237.96001
24.608364 -39.320503 6.5191464 237.96001
5.0490746 -8.0676699 -2.0229807 237.96001
5.6273289 -8.9916334 -1.9985317 237.96001
6.3192153 -10.156195 -1.9652249 238.11
6.9704356 -11.202831 -1.8543423 238.11
8.7606325 -14.080023 -1.939252 238.11
8.8379517 -14.204288 -1.5607703 238.11
11.69631 -18.798222 -1.5481752 238.11
2.3435886 -3.7665975 -1.9751132 238.11
11.840906 -19.030613 -1.045239 238.11
2.4734454 -3.9753027 -1.955636 238.11
12.685055 -20.387323 -0.55747688 238.11
2.3424091 -3.7647021 -1.7313977 238.11
2.3530798 -3.781852 -1.6211755 238.11
24.696192 -39.691532 1.0853368 238.11
3.1791155 -5.1094503 -2.0333831 238.11
24.663364 -39.638771 2.1771231 238.11
3.4767022 -5.587729 -2.0535486 238.11
24.671131 -39.651253 3.2655795 238.11
3.8259542 -6.1490445 -2.0766518 238.11
24.657055 -39.628628 4.3544025 238.11
4.2060909 -6.7599974 -2.0842595 238.11
24.656334 -39.627472 5.4579215 238.11
4.5617428 -7.3315983 -2.0459828 238.11
24.636127 -39.594994 6.5539398 238.11
5.0300031 -8.0841827 -2.0238123 238.11
5.6037693 -9.0063353 -1.9985317 238.11
6.2699461 -10.151908 -1.9603612 238.3
6.9363694 -11.230939 -1.8551774 238.3
8.7379017 -14.147869 -1.944595 238.3
8.7374334 -14.147111 -1.5512953 238.3
11.546893 -18.696012 -1.5365956 238.3
2.3378057 -3.7852299 -1.9808074 238.3
11.682201 -18.915096 -1.0367607 238.3
2.4583099 -3.9803426 -1.9540944 238.3
2.3553648 -3.8136606 -1.7503121 238.3
24.805414 -40.163391 0 238.3
2.4047174 -3.8935695 -1.6656381 238.3
24.705223 -40.001163 1.0915573 238.3
2.5070231 -4.059216 -1.6121092 238.3
24.665108 -39.936211 2.1889553 238.3
3.4481211 -5.582984 -2.047591 238.3
24.66741 -39.939941 3.2826002 238.3
3.8035216 -6.1584268 -2.0755494 238.3
24.66049 -39.928738 4.3783684 238.3
4.1775508 -6.7640309 -2.0812204 238.3
24.651093 -39.913517 5.4860296 238.3
4.5486541 -7.3648987 -2.0510552 238.3
24.627493 -39.875309 6.5867844 238.3
5.0052233 -8.104147 -2.0246441 238.3
5.5728397 -9.0231962 -1.9981614 238.3
6.2436366 -10.172741 -1.9610097 238.46001
6.8697557 -11.192875 -1.8457136 238.46001
8.6869297 -14.153591 -1.9420397 238.46001
11.686668 -19.041059 -1.562266 238.46001
2.3272262 -3.7917438 -1.9808074 238.46001
11.608434 -18.913591 -1.0348974 238.46001
2.4066398 -3.9211321 -1.9217188 238.46001
12.794562 -20.846148 -0.56787533 238.46001
2.3700435 -3.8615057 -1.7692266 238.46001
24.765348 -40.350117 0 238.46001
2.36041 -3.8458099 -1.6423807 238.46001
24.744034 -40.315388 1.0982419 238.46001
2.4907222 -4.0581269 -1.6089079 238.46001
24.703976 -40.250122 2.2023714 238.46001
3.4145405 -5.563302 -2.0368676 238.46001
24.689365 -40.226318 3.3004577 238.46001
3.7802753 -6.159193 -2.0722415 238.46001
24.680141 -40.211292 4.4017773 238.46001
4.1647182 -6.7855644 -2.0842595 238.46001
24.670464 -40.195522 5.5152998 238.46001
4.5168719 -7.3593273 -2.0459828 238.46001
24.659014 -40.176868 6.6251965 238.46001
4.9815493 -8.1164255 -2.0242283 238.46001
5.5537891 -9.0487738 -2.0003831 238.46001
6.2342424 -10.229381 -1.9681431 238.64
6.8685713 -11.270211 -1.854899 238.64
8.6176109 -14.140101 -1.9364644 238.64
8.7538528 -14.363653 -1.5693164 238.64
11.63406 -19.089605 -1.5632426 238.64
2.3000891 -3.7740734 -1.9677919 238.64
11.487616 -18.849314 -1.0294006 238.64
2.3827846 -3.9097629 -1.9124687 238.64
12.717564 -20.867458 -0.56736463 238.64
2.5333858 -4.1568751 -1.9009001 238.64
24.778975 -40.658276 0 238.64
2.2994137 -3.7729647 -1.6081787 238.64
24.703623 -40.534637 1.1020949 238.64
2.4750028 -4.0610781 -1.6069872 238.64
24.711525 -40.547604 2.2143898 238.64
3.404001 -5.5854135 -2.0410378 238.64
24.697847 -40.525162 3.3185945 238.64
3.7579055 -6.1661134 -2.0705879 238.64
24.685307 -40.504585 4.4253716 238.64
4.1433802 -6.798615 -2.0842595 238.64
24.678455 -40.493343 5.5454988 238.64
4.5068955 -7.3950849 -2.0519774 238.64
24.66254 -40.467228 6.6602678 238.64
4.9529719 -8.1270237 -2.0229807 238.64
5.5171514 -9.0527506 -1.9974208 238.64
6.156096 -10.172935 -1.9535522 238.82001
6.8464608 -11.313762 -1.8585176 238.82001
8.5957718 -14.204494 -1.9415751 238.82001
8.7293053 -14.425158 -1.573032 238.82001
11.578162 -19.132889 -1.5638006 238.82001
2.2853835 -3.7765911 -1.9653515 238.82001
11.715887 -19.360477 -1.055301 238.82001
2.3580689 -3.8967037 -1.9024477 238.82001
12.390043 -20.47452 -0.55562001 238.82001
2.4798038 -4.0978703 -1.870346 238.82001
24.75156 -40.901897 0 238.82001
2.2778189 -3.7640908 -1.6013383 238.82001
24.679674 -40.783108 1.1067371 238.82001
2.344516 -3.8743074 -1.5301592 238.82001
24.72986 -40.866039 2.2275262 238.82001
3.3973103 -5.6140475 -2.047591 238.82001
24.717089 -40.844936 3.3384054 238.82001
3.742497 -6.1844683 -2.072793 238.82001
24.700211 -40.817043 4.4510098 238.82001
4.1290131 -6.823185 -2.087805 238.82001
24.688932 -40.798405 5.5766273 238.82001
4.472558 -7.390892 -2.046905 238.82001
24.673714 -40.773258 6.6978445 238.82001
4.9355187 -8.1559334 -2.0263073 238.82001
5.4846139 -9.0633125 -1.9959396 238.82001
6.1014833 -10.15056 -1.9457704 238.99001
6.7944961 -11.303471 -1.8535074 238.99001
7.6611824 -12.74531 -1.7390083 238.99001
8.6084967 -14.321281 -1.5589124 238.99001
11.567597 -19.244106 -1.5700787 238.99001
2.2939353 -3.8162405 -1.9824344 238.99001
11.608987 -19.312963 -1.0508289 238.99001
2.3531523 -3.9147551 -1.9078436 238.99001
12.356023 -20.555748 -0.55682695 238.99001
2.4282827 -4.0397439 -1.8405194 238.99001
12.745743 -21.204094 0 238.99001
2.3344173 -3.8835871 -1.6492212 238.99001
12.713467 -21.150398 0.57293522 238.99001
24.76186 -41.194366 2.2414081 238.99001
3.385556 -5.6322846 -2.0505698 238.99001
24.718107 -41.121578 3.3550074 238.99001
3.7261119 -6.1988406 -2.0738955 238.99001
24.713392 -41.113735 4.4753475 238.99001
4.1077533 -6.8337479 -2.0872984 238.99001
24.699791 -41.09111 5.6065941 238.99001
4.4696589 -7.4358215 -2.0556664 238.99001
24.656704 -41.019428 6.7262359 238.99001
4.9143214 -8.1755714 -2.0275548 238.99001
5.4627614 -9.0879688 -1.9977911 238.99001
6.1482301 -10.2974 -1.9704127 239.16
6.7619433 -11.325281 -1.8537858 239.16
6.8066196 -11.400108 -1.5527025 239.16
8.65376 -14.493801 -1.5748899 239.16
11.524767 -19.302324 -1.5720319 239.16
2.2826021 -3.8230298 -1.9824344 239.16
11.489159 -19.242687 -1.0451458 239.16
2.3453109 -3.9280579 -1.9109269 239.16
12.310353 -20.618069 -0.55752331 239.16
2.4153309 -4.0453315 -1.8397919 239.16
12.755569 -21.363741 0 239.16
2.3315551 -3.9050193 -1.6553775 239.16
24.699633 -41.368328 1.118621 239.16
2.4623275 -4.1240439 -1.6229931 239.16
24.78598 -41.512951 2.2547309 239.16
3.3717661 -5.6472225 -2.052357 239.16
24.737133 -41.431137 3.3742602 239.16
3.7057321 -6.2065673 -2.072793 239.16
24.726049 -41.412571 4.4998713 239.16
4.0894432 -6.8492284 -2.0883114 239.16
24.723387 -41.408112 5.6398134 239.16
4.4475765 -7.4490504 -2.0556664 239.16
24.672972 -41.323673 6.764091 239.16
4.8900423 -8.1901169 -2.0275548 239.16
5.4337578 -9.1007614 -1.9970505 239.16
6.1303163 -10.328735 -1.9733309 239.31
6.763607 -11.395742 -1.8624145 239.31
8.595458 -14.482159 -1.5711741 239.31
11.557694 -19.473118 -1.583472 239.31
2.2669904 -3.8195655 -1.9775536 239.31
12.383984 -20.865299 -1.1315114 239.31
2.3387868 -3.9405324 -1.9140104 239.31
12.338994 -20.789499 -0.56128341 239.31
2.4808009 -4.1798067 -1.8979902 239.31
24.811216 -41.803471 0 239.31
24.766773 -41.728588 1.1266055 239.31
2.5695047 -4.3292603 -1.7011017 239.31
24.834246 -41.84227 2.2690787 239.31
2.6017737 -4.3836288 -1.5906512 239.31
24.769108 -41.732521 3.393513 239.31
3.6865268 -6.211288 -2.0711391 239.31
24.75374 -41.706631 4.524766 239.31
4.0685353 -6.8549194 -2.086792 239.31
24.744673 -41.691353 5.669548 239.31
4.4360061 -7.4740572 -2.0593553 239.31
24.695101 -41.60783 6.7999978 239.31
4.8755732 -8.2146664 -2.0304656 239.31
5.4109163 -9.1166458 -1.9974208 239.31
6.1028471 -10.356444 -1.9749521 239.49001
6.7559271 -11.464712 -1.8702081 239.49001
7.2551851 -12.311946 -1.6711762 239.49001
8.5408201 -14.493649 -1.5695021 239.49001
11.516719 -19.543709 -1.5862622 239.49001
2.2494142 -3.8172238 -1.9726727 239.49001
12.605412 -21.391205 -1.1578777 239.49001
2.3292065 -3.9526305 -1.9163229 239.49001
12.441113 -21.112392 -0.56894296 239.49001
2.4146912 -4.0976968 -1.8572514 239.49001
24.210661 -41.085148 0 239.49001
2.4635966 -4.1806884 -1.7661921 239.49001
24.772596 -42.038742 1.1328725 239.49001
2.5558913 -4.3373113 -1.7011017 239.49001
24.860899 -42.188591 2.2836127 239.49001
3.3362768 -5.6616144 -2.0505698 239.49001
24.779686 -42.050774 3.4130447 239.49001
3.661139 -6.2129011 -2.0678315 239.49001
24.760088 -42.017517 4.5500326 239.49001
4.0450153 -6.8643336 -2.085779 239.49001
24.747704 -41.996502 5.7004437 239.49001
4.4213963 -7.503046 -2.0635054 239.49001
4.8547082 -8.2383709 -2.0325446 239.49001
5.3862405 -9.1403732 -1.998902 239.49001
6.0860486 -10.398352 -1.9794915 239.66
7.0180078 -11.990656 -1.9525986 239.66
7.1062393 -12.141405 -1.6451585 239.66
8.469614 -14.470805 -1.5643002 239.66
11.469767 -19.596735 -1.5877968 239.66
2.2353096 -3.8191507 -1.9702322 239.66
12.614548 -21.552654 -1.1645857 239.66
2.3137398 -3.9531529 -1.9132395 239.66
12.261259 -20.949041 -0.5635581 239.66
2.4138153 -4.1241374 -1.8659811 239.66
24.144217 -41.251736 0 239.66
2.4616239 -4.2058215 -1.7737164 239.66
24.783094 -42.343292 1.1390929 239.66
2.5324829 -4.3268876 -1.6940591 239.66
24.877905 -42.505283 2.2967494 239.66
3.3204281 -5.6731362 -2.0511656 239.66
24.776752 -42.332458 3.4299259 239.66
3.6417179 -6.2220774 -2.0672801 239.66
24.7701 -42.321091 4.5749278 239.66
4.0216985 -6.8712955 -2.0842595 239.66
24.767483 -42.31662 5.7338953 239.66
4.3971486 -7.5127726 -2.0625832 239.66
4.8292546 -8.25105 -2.0321288 239.66
5.337255 -9.1189966 -1.9907553 239.66
6.9713478 -11.997232 -1.9500935 239.84
8.4861412 -14.604092 -1.5758188 239.84
11.432203 -19.674072 -1.5911452 239.84
2.2187107 -3.8182554 -1.9661649 239.84
12.546776 -21.592178 -1.1645857 239.84
2.2985277 -3.9556153 -1.9109269 239.84
12.018582 -20.683191 -0.55538791 239.84
2.343751 -4.0334415 -1.821605 239.84
24.818367 -42.710785 0 239.84
2.4238489 -4.1712847 -1.7559314 239.84
24.787571 -42.657787 1.1454527 239.84
2.519829 -4.3364606 -1.6946993 239.84
24.848639 -42.762878 2.3064387 239.84
3.2977931 -5.6752858 -2.0481868 239.84
24.798006 -42.675743 3.4514108 239.84
3.6289139 -6.2451229 -2.0711391 239.84
24.782093 -42.648357 4.6018662 239.84
4.0030084 -6.8889146 -2.085779 239.84
24.768154 -42.624371 5.7650237 239.84
4.3901467 -7.5551548 -2.0704222 239.84
4.8082237 -8.2746382 -2.0342081 239.84
5.3214178 -9.1578112 -1.9955692 239.84
5.9148898 -10.249021 -1.9441493 240.00999
6.9357209 -12.017864 -1.9500935 240.00999
7.1113744 -12.322227 -1.6637425 240.00999
8.416893 -14.584364 -1.5709884 240.00999
8.4408293 -14.62584 -1.1808376 240.00999
2.2183311 -3.8438113 -1.9759266 240.00999
12.52959 -21.710636 -1.1689645 240.00999
2.2932382 -3.9736066 -1.9163229 240.00999
19.153046 -33.187424 -0.88962334 240.00999
2.3718154 -4.1097612 -1.8528866 240.00999
24.806498 -42.98344 0 240.00999
2.3954918 -4.1507864 -1.7443027 240.00999
24.80681 -42.983982 1.1522303 240.00999
25.149055 -43.577003 2.346314 240.00999
3.281894 -5.6866989 -2.0487826 240.00999
24.807901 -42.98587 3.4705241 240.00999
3.6170952 -6.2675185 -2.0749979 240.00999
24.795792 -42.964886 4.6280618 240.00999
3.9883535 -6.9108162 -2.0888181 240.00999
24.786545 -42.948864 5.7989397 240.00999
4.3677111 -7.5681472 -2.0704222 240.00999
4.7904963 -8.3007288 -2.0371187 240.00999
5.3148532 -9.2093077 -2.0033457 240.00999
5.9699802 -10.419956 -1.9730067 240.19
6.9186072 -12.075682 -1.9559388 240.19
8.2571888 -14.412031 -1.5496233 240.19
9.9956512 -17.446329 -1.4060115 240.19
2.1971614 -3.834908 -1.9677919 240.19
12.472247 -21.768961 -1.1699893 240.19
2.2816608 -3.9823925 -1.9170938 240.19
2.3746371 -4.1446729 -1.8652537 240.19
24.80954 -43.302372 0 240.19
2.4861462 -4.3392997 -1.8202312 240.19
24.831682 -43.341019 1.1597041 240.19
25.246418 -44.064896 2.3683014 240.19
3.2621143 -5.6936684 -2.047591 240.19
24.828451 -43.335381 3.4924276 240.19
3.6031218 -6.2888598 -2.0783057 240.19
24.810173 -43.303478 4.6561155 240.19
3.9704702 -6.930027 -2.0908439 240.19
24.792711 -43.272999 5.832159 240.19
4.3458481 -7.5852089 -2.0713444 240.19
4.7682853 -8.3225269 -2.0387821 240.19
5.2888265 -9.2310753 -2.0044565 240.19
5.9603853 -10.470889 -1.9794915 240.35001
6.8250928 -11.989962 -1.9389596 240.35001
8.0612612 -14.161596 -1.5202694 240.35001
8.4091616 -14.772769 -1.1886504 240.35001
2.1647513 -3.8029201 -1.9482685 240.35001
12.393619 -21.772451 -1.1683123 240.35001
2.2732699 -3.9935603 -1.9194063 240.35001
2.3529158 -4.1334782 -1.8572514 240.35001
24.844847 -43.646111 0 240.35001
2.3680294 -4.1600285 -1.7422506 240.35001
24.869804 -43.689957 1.167178 240.35001
2.909493 -5.1112432 -1.9872862 240.35001
3.2207007 -5.6579566 -2.0315058 240.35001
24.837624 -43.633419 3.5108433 240.35001
3.5779374 -6.285531 -2.0738955 240.35001
24.829039 -43.61834 4.6824965 240.35001
3.9530168 -6.9444504 -2.091857 240.35001
24.821144 -43.604469 5.8674688 240.35001
3.164542 -5.5592999 -1.5156965 240.35001
4.7363157 -8.320509 -2.0350397 240.35001
5.2591386 -9.2389755 -2.0029755 240.35001
5.9370613 -10.502272 -1.9820855 240.52
6.806057 -12.039469 -1.9436915 240.52
7.7889109 -13.778073 -1.4766102 240.52
8.6097717 -15.230122 -1.223389 240.52
2.15166 -3.8061454 -1.9466416 240.52
12.357475 -21.859564 -1.1710142 240.52
2.2695847 -4.0147467 -1.9263439 240.52
2.3314731 -4.1242232 -1.8499767 240.52
24.856968 -43.970345 0 240.52
24.883726 -44.017681 1.1739556 240.52
2.8598144 -5.0588241 -1.9635977 240.52
24.970575 -44.17131 2.3662517 240.52
24.8622 -43.979603 3.5327468 240.52
3.5602183 -6.2977929 -2.0744467 240.52
24.838669 -43.937977 4.708878 240.52
3.933347 -6.9578328 -2.0923634 240.52
24.841227 -43.942505 5.9030108 240.52
4.311666 -7.6270547 -2.0759556 240.52
4.7144957 -8.3396339 -2.0362871 240.52
5.2355719 -9.2613831 -2.0044565 240.52
5.9049082 -10.518121 -1.9817612 240.69
6.8061781 -12.123508 -1.9539903 240.69
7.0453463 -12.549527 -1.6830236 240.69
8.4307394 -15.017259 -1.2042757 240.69
2.1448295 -3.8204787 -1.950709 240.69
12.284739 -21.882196 -1.1702689 240.69
2.2549524 -4.0166349 -1.9240314 240.69
2.320138 -4.1327472 -1.8507041 240.69
24.878151 -44.31422 0 240.69
2.4978657 -4.4493246 -1.8571694 240.69
24.908644 -44.368534 1.1813366 240.69
2.5053091 -4.4625831 -1.729272 240.69
24.98513 -44.504776 2.3801336 240.69
24.87615 -44.310654 3.5533948 240.69
3.5358698 -6.2982697 -2.0711391 240.69
24.852468 -44.268475 4.7363739 240.69
3.1189718 -5.5556703 -1.667914 240.69
24.844934 -44.255054 5.9350686 240.69
4.2823482 -7.6279349 -2.0727277 240.69
4.7031384 -8.3774681 -2.0421085 240.69
5.2099938 -9.280304 -2.0051973 240.69
5.8804817 -10.552135 -1.9846793 240.87
6.7757707 -12.158671 -1.9562171 240.87
6.9971833 -12.555982 -1.6809329 240.87
11.256371 -20.198811 -1.616955 240.87
2.131927 -3.8256021 -1.9498955 240.87
12.240247 -21.964312 -1.172598 240.87
2.240526 -4.0204754 -1.9224896 240.87
18.652769 -33.471157 -0.88962334 240.87
2.3134913 -4.1514072 -1.8557965 240.87
24.872192 -44.6315 0 240.87
2.3695166 -4.2519403 -1.7716644 240.87
24.921944 -44.720779 1.1886247 240.87
2.4663737 -4.4257441 -1.7119857 240.87
25.004686 -44.869251 2.3954129 240.87
2.5762682 -4.6229424 -1.6514176 240.87
24.882504 -44.650005 3.5743217 240.87
3.5188735 -6.3143849 -2.072793 240.87
24.864496 -44.617691 4.7653561 240.87
3.0977354 -5.558681 -1.6658881 240.87
24.866302 -44.620934 5.9736304 240.87
4.2621527 -7.6481504 -2.0745723 240.87
4.6815581 -8.4007463 -2.0441878 240.87
5.1875105 -9.3086443 -2.0077894 240.87
5.851058 -10.572989 -1.9853278 241.03999
6.7204857 -12.144064 -1.9506502 241.03999
6.8050413 -12.296858 -1.6435324 241.03999
8.2025404 -14.822168 -1.5804634 241.03999
11.213778 -20.263542 -1.6194663 241.03999
2.1196823 -3.830312 -1.949082 241.03999
12.197272 -22.040737 -1.1747409 241.03999
2.2285872 -4.0271053 -1.9224896 241.03999
2.2461379 -4.0588202 -1.8114203 241.03999
24.922686 -45.035835 0 241.03999
2.3232205 -4.1981101 -1.7463548 241.03999
24.963409 -45.109425 1.1969807 241.03999
2.3532305 -4.2523389 -1.6422001 241.03999
25.023319 -45.217682 2.4100401 241.03999
24.898685 -44.992466 3.5958066 241.03999
24.883385 -44.964817 4.7945242 241.03999
3.0325139 -5.4798188 -1.6395499 241.03999
24.873268 -44.946537 6.0073142 241.03999
4.2498069 -7.6794934 -2.0796444 241.03999
4.6613483 -8.4231577 -2.0462668 241.03999
5.1513038 -9.3085175 -2.0044565 241.03999
5.8054614 -10.568832 -1.9811127 241.22
6.7051854 -12.206779 -1.9573305 241.22
8.1310072 -14.802485 -1.575633 241.22
11.184644 -20.361624 -1.6244887 241.22
2.1085181 -3.8385537 -1.9498955 241.22
12.181832 -22.177006 -1.1799582 241.22
2.21859 -4.0389395 -1.9248022 241.22
12.899323 -23.483196 -0.62204927 241.22
2.2809134 -4.1523991 -1.8499767 241.22
24.912033 -45.35231 0 241.22
2.3045914 -4.1955047 -1.7422506 241.22
24.97463 -45.46627 1.2043617 241.22
2.4657469 -4.4888883 -1.7305524 241.22
25.035036 -45.576241 2.4249468 241.22
3.0847843 -5.6158442 -1.9993353 241.22
24.907061 -45.343258 3.6175706 241.22
2.4444952 -4.4501991 -1.4559165 241.22
24.886768 -45.30632 4.8225775 241.22
3.0404341 -5.5351052 -1.6532254 241.22
24.876354 -45.287361 6.0423918 241.22
4.2284708 -7.6979241 -2.081028 241.22
4.6376886 -8.4429045 -2.0475144 241.22
5.1248732 -9.3298225 -2.0055676 241.22
5.7891979 -10.613731 -1.9863006 241.39
6.6632476 -12.216187 -1.9556605 241.39
7.9602299 -14.594033 -1.5509237 241.39
8.1253138 -14.896693 -1.1865577 241.39
2.0971198 -3.8447928 -1.9498955 241.39
11.65009 -21.358906 -1.134586 241.39
2.2189684 -4.0681863 -1.9355941 241.39
12.819059 -23.502058 -0.62153864 241.39
2.3015902 -4.2196627 -1.8768933 241.39
24.931549 -45.70871 0 241.39
2.2750342 -4.1709757 -1.7292539 241.39
24.995682 -45.82629 1.2119284 241.39
2.5177426 -4.6159496 -1.7766492 241.39
25.048937 -45.923927 2.4394808 241.39
24.917629 -45.683193 3.6387768 241.39
2.4220746 -4.4405551 -1.4504038 241.39
24.896219 -45.64394 4.8506312 241.39
3.0443802 -5.5814705 -1.6643685 241.39
24.897873 -45.646973 6.0804892 241.39
4.2084079 -7.7155614 -2.0824113 241.39
4.6098075 -8.4514751 -2.0462668 241.39
5.1046977 -9.3587914 -2.0085299 241.39
5.7605004 -10.636068 -1.9872733 241.56
6.6241426 -12.230679 -1.9548254 241.56
7.9187899 -14.621089 -1.5512953 241.56
11.111127 -20.515354 -1.6314644 241.56
2.0865729 -3.8526049 -1.950709 241.56
11.626626 -21.467161 -1.1384989 241.56
2.2130404 -4.0861115 -1.94099 241.56
12.71023 -23.467905 -0.61963534 241.56
2.2553453 -4.1642227 -1.8492491 241.56
24.939642 -46.048035 0 241.56
2.3414116 -4.3231339 -1.7894493 241.56
25.03005 -46.214962 1.2202379 241.56
2.8108366 -5.1898699 -1.9943289 241.56
25.068604 -46.286148 2.4547603 241.56
24.93685 -46.042881 3.6615174 241.56
24.914316 -46.001274 4.8807282 241.56
24.909906 -45.993134 6.1167283 241.56
4.1854968 -7.728014 -2.0824113 241.56
4.5949597 -8.4840374 -2.0508409 241.56
5.0759711 -9.3721676 -2.0081596 241.56
5.7354417 -10.656326 -1.988246 241.71001
6.6193209 -12.298554 -1.9628974 241.71001
8.0447016 -14.94688 -1.5836217 241.71001
11.117896 -20.656809 -1.6403933 241.71001
2.0782115 -3.8612721 -1.9523358 241.71001
12.084519 -22.452776 -1.1890886 241.71001
2.2023354 -4.0918913 -1.94099 241.71001
12.614634 -23.437716 -0.61796421 241.71001
2.2409039 -4.1635509 -1.8463392 241.71001
24.973507 -46.400234 0 241.71001
2.2543757 -4.1885815 -1.731306 241.71001
25.066278 -46.572601 1.2279439 241.71001
2.21175 -4.1093841 -1.5768963 241.71001
25.102623 -46.640129 2.4700396 241.71001
3.1054127 -5.7697892 -2.0446122 241.71001
24.965624 -46.385586 3.6835604 241.71001
2.9621494 -5.5036092 -1.7921941 241.71001
24.938196 -46.334629 4.909153 241.71001
24.945694 -46.348557 6.1552901 241.71001
4.1717072 -7.7509413 -2.085639 241.71001
4.5773683 -8.5046511 -2.0529201 241.71001
5.0672526 -9.4148455 -2.0144548 241.71001
5.703795 -10.677773 -1.9888945 241.89
6.5703864 -12.300073 -1.9598356 241.89
7.9573593 -14.896552 -1.575633 241.89
11.096188 -20.772585 -1.6468109 241.89
2.0660708 -3.8677819 -1.9523358 241.89
11.99792 -22.460672 -1.1875048 241.89
2.1868608 -4.0939064 -1.9386774 241.89
12.584275 -23.558355 -0.6200996 241.89
2.2760909 -4.2609491 -1.8863505 241.89
24.983097 -46.769535 0 241.89
2.2075567 -4.1326504 -1.7053125 241.89
25.075285 -46.942116 1.2356035 241.89
25.11035 -47.007759 2.4853189 241.89
3.0800745 -5.7660446 -2.0398462 241.89
24.977701 -46.759434 3.7069986 241.89
2.4058774 -4.5039158 -1.4641856 241.89
24.960457 -46.72715 4.9424081 241.89
24.959074 -46.724564 6.1947813 241.89
3.0460868 -5.7024179 -1.5318357 241.89
4.5552363 -8.5276175 -2.0549991 241.89
5.0348721 -9.425518 -2.0133438 241.89
5.6841097 -10.717316 -1.9931096 242.06
6.5329347 -12.317763 -1.9595573 242.06
7.881402 -14.860282 -1.5693164 242.06
11.067224 -20.867107 -1.6516938 242.06
2.0554419 -3.875509 -1.9531493 242.06
11.958372 -22.547356 -1.1902065 242.06
2.1747043 -4.1003771 -1.9386774 242.06
12.532121 -23.629152 -0.62098157 242.06
2.2966087 -4.3302259 -1.9139947 242.06
25.011023 -47.157959 0 242.06
2.2956712 -4.3284588 -1.783293 242.06
25.097031 -47.320129 1.243588 242.06
25.113985 -47.352093 2.4995735 242.06
2.9869158 -5.6317911 -1.9892075 242.06
24.998707 -47.134739 3.7308552 242.06
24.982187 -47.103592 4.9743633 242.06
2.8809986 -5.432086 -1.6096662 242.06
24.973904 -47.087975 6.2331109 242.06
3.0328014 -5.718308 -1.5336802 242.06
4.5344977 -8.549737 -2.0570784 242.06
5.0096464 -9.4456244 -2.0144548 242.06
5.6448627 -10.729119 -1.9918127 242.25
6.4533205 -12.265744 -1.9478667 242.25
7.2079492 -13.700058 -1.8103248 242.25
7.816318 -14.856377 -1.5661581 242.25
11.01097 -20.928411 -1.6536469 242.25
2.0476832 -3.8920057 -1.9580302 242.25
11.958884 -22.730099 -1.1977531 242.25
2.1662507 -4.1173654 -1.9433025 242.25
12.422042 -23.610418 -0.61940324 242.25
2.3099945 -4.3905773 -1.937274 242.25
25.001637 -47.520298 0 242.25
2.2830551 -4.3393741 -1.7846611 242.25
25.125238 -47.755222 1.2528259 242.25
25.116819 -47.73922 2.5155983 242.25
2.3904023 -4.5434074 -1.6019704 242.25
24.994614 -47.506947 3.7537353 242.25
2.9182048 -5.5465946 -1.7971556 242.25
24.976057 -47.471676 5.0044603 242.25
3.6953745 -7.0237517 -2.0776749 242.25
24.97023 -47.460602 6.271441 242.25
3.0872195 -5.8678389 -1.5710309 242.25
4.5042987 -8.561264 -2.0562465 242.25
4.9728055 -9.4517488 -2.012233 242.25
5.6084356 -10.737075 -1.9901915 242.42
6.4260683 -12.302393 -1.9506502 242.42
7.1700277 -13.726666 -1.8110217 242.42
7.9492221 -15.218395 -1.6018286 242.42
10.995012 -21.04941 -1.6606226 242.42
2.0403559 -3.9061613 -1.9620975 242.42
11.901565 -22.784962 -1.1987779 242.42
2.1565881 -4.1286821 -1.9456151 242.42
12.45006 -23.83503 -0.62432396 242.42
2.2400293 -4.2884264 -1.8892604 242.42
25.028133 -47.915131 0 242.42
25.056568 -47.96957 1.2564931 242.42
35.460503 -67.88739 3.5717378 242.42
2.9028549 -5.557373 -1.9564413 242.42
25.030903 -47.920433 3.7805219 242.42
2.8696911 -5.4938827 -1.7773097 242.42
25.012114 -47.884464 5.0401306 242.42
3.1110685 -5.9559879 -1.7590846 242.42
24.986572 -47.835564 6.3111644 242.42
3.0013177 -5.7458754 -1.5359858 242.42
4.4806886 -8.5780592 -2.0570784 242.42
4.9483795 -9.4734297 -2.0137141 242.42
5.5820045 -10.764179 -1.9921368 242.59
6.373127 -12.289758 -1.94564 242.59
7.1045775 -13.700267 -1.8047496 242.59
8.0351257 -15.494708 -1.6283957 242.59
10.960063 -21.135075 -1.664808 242.59
2.0396917 -3.9332836 -1.9726727 242.59
11.935076 -23.015263 -1.2090262 242.59
2.1460276 -4.138339 -1.9471568 242.59
12.343388 -23.802639 -0.62251353 242.59
2.2444484 -4.3281307 -1.90381 242.59
35.218979 -67.915283 0 242.59
2.244287 -4.3278198 -1.7744005 242.59
35.216854 -67.911186 1.77609 242.59
35.219372 -67.916046 3.5677314 242.59
2.8635013 -5.5218949 -1.9409518 242.59
2.8392172 -5.4750662 -1.7684892 242.59
4.059341 -7.8279181 -2.0893281 242.59
4.4381061 -8.5583191 -2.0491776 242.59
4.9356308 -9.5177317 -2.0200093 242.59
5.5608821 -10.80175 -1.9960278 242.75999
6.3819609 -12.396657 -1.9595573 242.75999
7.1093588 -13.809594 -1.8163646 242.75999
7.9891162 -15.518481 -1.6283957 242.75999
10.956664 -21.282803 -1.6738763 242.75999
2.0355389 -3.9539385 -1.9799939 242.75999
11.912458 -23.139387 -1.2136846 242.75999
2.13205 -4.1414065 -1.9456151 242.75999
12.271794 -23.837381 -0.6224671 242.75999
2.1949291 -4.2635465 -1.8725284 242.75999
34.977036 -67.941238 0 242.75999
2.2391784 -4.3494983 -1.7805569 242.75999
34.966698 -67.921158 1.7736297 242.75999
2.2921824 -4.452456 -1.6921384 242.75999
34.970158 -67.927879 3.5628867 242.75999
2.8514743 -5.5388541 -1.9439306 242.75999
2.3187342 -4.5040317 -1.4526088 242.75999
2.9649711 -5.759316 -1.6957717 242.75999
4.4225435 -8.5905819 -2.0537517 242.75999
4.9046707 -9.527091 -2.0188985 242.75999
5.5261135 -10.81293 -1.9950551 242.92999
6.3541641 -12.433174 -1.9623407 242.92999
6.896594 -13.494546 -1.7722274 242.92999
7.9901605 -15.634323 -1.6380564 242.92999
10.294228 -20.142685 -1.5817978 242.92999
2.0296187 -3.971349 -1.9856883 242.92999
11.882844 -23.251125 -1.2176908 242.92999
2.1197529 -4.1477141 -1.9456151 242.92999
12.103653 -23.683182 -0.61749995 242.92999
2.2424641 -4.3878226 -1.9241794 242.92999
2.3040926 -4.5084114 -1.8428046 242.92999
34.714973 -67.926682 1.7710764 242.92999
2.2806861 -4.4626117 -1.6934189 242.92999
34.720268 -67.93705 3.5579491 242.92999
2.8767319 -5.6288929 -1.9725266 242.92999
2.3009858 -4.5023317 -1.4498525 242.92999
2.9452283 -5.7629194 -1.6942523 242.92999
2.882746 -5.6406608 -1.5009408 242.92999
4.415731 -8.6402473 -2.062484 242.92999
4.8924813 -9.5731039 -2.025564 242.92999
5.4993644 -10.839839 -1.9970005 243.10001
6.2061343 -12.232959 -1.9278258 243.10001
6.7936125 -13.390943 -1.7559663 243.10001
7.9149065 -15.601133 -1.6321113 243.10001
10.164913 -20.036139 -1.5710553 243.10001
2.0293996 -4.000165 -1.9970769 243.10001
11.281415 -22.236883 -1.1628155 243.10001
2.109942 -4.1589227 -1.9479276 243.10001
12.065897 -23.783182 -0.61917114 243.10001
2.2311211 -4.3977799 -1.9256344 243.10001
34.488194 -67.979942 0 243.10001
2.2396879 -4.4146662 -1.8017621 243.10001
34.46714 -67.938446 1.7687089 243.10001
2.263149 -4.4609103 -1.6902177 243.10001
34.473351 -67.950684 3.5532906 243.10001
2.7788215 -5.4773564 -1.9165261 243.10001
2.9351194 -5.7854362 -1.6983042 243.10001
3.1662445 -6.2410088 -1.6581823 243.10001
4.3927307 -8.6585455 -2.0637314 243.10001
4.8720589 -9.6033525 -2.0288966 243.10001
5.4654021 -10.852583 -1.9963521 243.27
6.1448684 -12.20179 -1.9200321 243.27
6.7717209 -13.446524 -1.7606122 243.27
7.8327551 -15.553407 -1.6246799 243.27
10.120675 -20.096502 -1.5734271 243.27
2.0290272 -4.0290146 -2.0084655 243.27
11.177646 -22.195316 -1.1589025 243.27
2.0967629 -4.1635165 -1.9471568 243.27
12.174245 -24.17425 -0.62840903 243.27
2.2130351 -4.3943968 -1.9212694 243.27
25.036028 -49.713737 0 243.27
2.2155902 -4.3994708 -1.7928696 243.27
34.233036 -67.976128 1.7670377 243.27
34.220364 -67.950966 3.5479801 243.27
2.2670662 -4.5016861 -1.5727787 243.27
2.7766335 -5.5135274 -1.7701432 243.27
2.9353456 -5.8286805 -1.7084342 243.27
3.1013203 -6.1582541 -1.6337429 243.27
4.3705406 -8.6785297 -2.0653946 243.27
4.8453116 -9.6212769 -2.0296373 243.27
5.4365735 -10.880292 -1.9982975 243.45
6.1764402 -12.360997 -1.9420215 243.45
6.6868243 -13.382437 -1.7494618 243.45
8.0902243 -16.19108 -1.2656615 243.45
2.0261598 -4.0549822 -2.0182273 243.45
11.132866 -22.280363 -1.1615112 243.45
2.0787232 -4.1601782 -1.9425317 243.45
11.952563 -23.920834 -0.62084234 243.45
2.2158732 -4.4346585 -1.935819 243.45
33.964119 -67.97287 0 243.45
2.2866025 -4.57621 -1.8619577 243.45
33.960331 -67.965286 1.763974 243.45
2.2866716 -4.5763483 -1.7286317 243.45
33.96743 -67.9795 3.5438807 243.45
2.2401121 -4.4831681 -1.5638424 243.45
2.8778856 -5.7595534 -1.8462191 243.45
2.8426459 -5.6890273 -1.664875 243.45
2.9819229 -5.9677644 -1.5807143 243.45
2.8479929 -5.6997285 -1.3543367 243.45
4.8229685 -9.6522751 -2.03297 243.45
5.3867297 -10.861014 -1.9918127 243.62
6.1714172 -12.443144 -1.9520419 243.62
6.643558 -13.3951 -1.7485327 243.62
7.2792716 -14.676859 -1.5284439 243.62
10.736163 -21.64683 -1.6896414 243.62
2.0327911 -4.0986233 -2.036937 243.62
11.103105 -22.386677 -1.165331 243.62
2.0762103 -4.1861672 -1.9517819 243.62
12.037895 -24.271452 -0.62901253 243.62
2.2118111 -4.4595723 -1.9438213 243.62
12.751166 -25.709589 0 243.62
2.2813652 -4.5998111 -1.868798 243.62
33.730095 -68.00843 1.7624885 243.62
2.1771088 -4.3896036 -1.655645 243.62
33.722084 -67.992287 3.5393157 243.62
2.8693264 -5.7852898 -1.8517318 243.62
2.8180165 -5.6818366 -1.6603165 243.62
2.868221 -5.7830615 -1.5295302 243.62
4.3235297 -8.7173338 -2.0683055 243.62
4.7943082 -9.6665421 -2.03297 243.62
5.3475075 -10.862783 -1.9892187 243.78999
6.2254424 -12.646197 -1.9809899 243.78999
6.6590576 -13.527032 -1.7631676 243.78999
10.675413 -21.685749 -1.6901994 243.78999
2.0254631 -4.1144719 -2.0418179 243.78999
11.018986 -22.383675 -1.1634676 243.78999
2.0629656 -4.1906533 -1.9510109 243.78999
11.890765 -24.154583 -0.6250667 243.78999
2.2578125 -4.5864596 -1.9961997 243.78999
12.775528 -25.951866 0 243.78999
2.4179471 -4.9117527 -1.9926094 243.78999
33.460163 -67.970085 1.758914 243.78999
2.1389697 -4.345046 -1.636438 243.78999
33.474316 -67.998833 3.534471 243.78999
2.8215804 -5.7316833 -1.8318858 243.78999
2.851563 -5.7925892 -1.6902002 243.78999
2.8046353 -5.6972613 -1.5046297 243.78999
3.0741906 -6.2448287 -1.4794996 243.78999
4.7725506 -9.6948318 -2.0359325 243.78999
5.3154187 -10.874128 -1.9885702 243.95
6.1935821 -12.67065 -1.9821033 243.95
6.5715322 -13.443849 -1.7499264 243.95
7.6677299 -15.686419 -1.628953 243.95
10.69805 -21.885757 -1.7034531 243.95
2.0243964 -4.1414514 -2.0523932 243.95
11.661831 -23.857435 -1.2383739 243.95
2.051255 -4.1963978 -1.9510109 243.95
11.774095 -24.087099 -0.6224671 243.95
2.2040884 -4.5090599 -1.9598258 243.95
12.085554 -24.724276 0 243.95
2.2308996 -4.5639091 -1.8489609 243.95
33.256176 -68.034515 1.7581712 243.95
33.238674 -67.998711 3.5296261 243.95
2.6721663 -5.46664 -1.7447845 243.95
2.9305398 -5.995213 -1.7469285 243.95
2.8186274 -5.7662654 -1.5207689 243.95
3.0730631 -6.2867827 -1.4874003 243.95
4.7402802 -9.6975269 -2.0337107 243.95
5.2853551 -10.904126 -1.99084 244.14
6.0634174 -12.509334 -1.953712 244.14
6.4948564 -13.399428 -1.7413312 244.14
7.1006045 -14.649137 -1.5187831 244.14
10.000595 -20.632059 -1.6032828 244.14
2.0257933 -4.1793799 -2.0678492 244.14
2.0485973 -4.2264261 -1.9618028 244.14
12.207829 -25.185764 -0.64980942 244.14
2.1956246 -4.5297556 -1.9656457 244.14
12.040138 -24.839804 0 244.14
2.1182039 -4.3700304 -1.7675601 244.14
32.991138 -68.063454 1.7560823 244.14
2.1446187 -4.4245267 -1.6614071 244.14
32.977276 -68.034851 3.5258064 244.14
2.1151776 -4.3637872 -1.5132037 244.14
2.6406069 -5.4477911 -1.7359641 244.14
2.7840567 -5.7437401 -1.670953 244.14
2.855514 -5.8911624 -1.5512027 244.14
2.9796693 -6.1473055 -1.4520552 244.14
3.0552902 -6.3033171 -1.3197641 244.14
5.263443 -10.936626 -1.9940823 244.3
5.8438025 -12.142525 -1.8938676 244.3
6.4436297 -13.388873 -1.7376144 244.3
7.5044065 -15.593005 -1.6144618 244.3
7.7721405 -16.149315 -1.2532448 244.3
2.0244148 -4.2064233 -2.0784242 244.3
11.588654 -24.079443 -1.2461998 244.3
2.0407884 -4.2404451 -1.965657 244.3
12.127911 -25.199938 -0.64929879 244.3
2.1393394 -4.445219 -1.9263618 244.3
32.750801 -68.05114 0 244.3
2.1426678 -4.4521351 -1.7983419 244.3
32.747181 -68.043617 1.7532041 244.3
32.749901 -68.049271 3.5218003 244.3
2.6704042 -5.5486903 -1.7657329 244.3
2.7831089 -5.7828732 -1.6800702 244.3
2.899816 -6.025373 -1.5844033 244.3
2.957401 -6.1450253 -1.4495603 244.3
4.6962948 -9.7581797 -2.0403762 244.3
5.2307591 -10.956671 -1.9947308 244.48
6.4622989 -13.536329 -1.7541078 244.48
7.8159184 -16.371704 -1.2685913 244.48
2.0182743 -4.227602 -2.0857456 244.48
11.555984 -24.205877 -1.2508582 244.48
2.0385878 -4.2701516 -1.9764489 244.48
12.213215 -25.582552 -0.65816528 244.48
2.1526532 -4.5090799 -1.9510961 244.48
32.484291 -68.043594 0 244.48
2.1238124 -4.448668 -1.7942376 244.48
32.484154 -68.043304 1.7505581 244.48
2.4652574 -5.1638803 -1.9335066 244.48
32.481731 -68.038239 3.5159307 244.48
2.7159083 -5.6889086 -1.8076298 244.48
2.7866006 -5.8369851 -1.6932392 244.48
2.7249231 -5.7077918 -1.4986352 244.48
3.0543909 -6.3979154 -1.5069439 244.48
4.6757765 -9.7941694 -2.0448198 244.48
5.1976061 -10.965884 -1.9937581 244.64
6.0473332 -12.758635 -1.9843301 244.64
6.4236221 -13.552527 -1.7538755 244.64
7.4978876 -15.819007 -1.633226 244.64
9.6783171 -20.419268 -1.5801237 244.64
2.0103736 -4.2414765 -2.0898128 244.64
11.516582 -24.297628 -1.2539327 244.64
2.0377214 -4.2991748 -1.9872407 244.64
12.254769 -25.855053 -0.66429293 244.64
2.140851 -4.5167575 -1.9518236 244.64
32.247894 -68.036453 0 244.64
2.0453753 -4.3153229 -1.7381464 244.64
32.244343 -68.028961 1.7478657 244.64
2.2909558 -4.8334475 -1.8073806 244.64
32.257381 -68.056465 3.5122039 244.64
2.0385833 -4.3009934 -1.4852035 244.64
2.7782366 -5.8615103 -1.8600008 244.64
2.6650469 -5.6227031 -1.6289133 244.64
4.6500916 -9.8107405 -2.0455604 244.64
5.1631303 -10.982159 -1.9937581 244.82001
6.3548141 -13.516912 -1.7466742 244.82001
7.4405284 -15.826265 -1.6315539 244.82001
8.2720823 -17.595009 -1.3595537 244.82001
1.9993708 -4.2527318 -2.0922532 244.82001
11.430841 -24.313801 -1.2529079 244.82001
2.0351975 -4.3289366 -1.9980326 244.82001
12.221972 -25.996565 -0.66693896 244.82001
2.1258581 -4.5217748 -1.9510961 244.82001
12.009981 -25.545652 0 244.82001
2.3140705 -4.9221091 -1.9796126 244.82001
31.988781 -68.04126 1.745591 244.82001
2.1298466 -4.5302587 -1.6914982 244.82001
32.000065 -68.065262 3.5074525 244.82001
2.7017331 -5.7466807 -1.8208604 244.82001
2.73792 -5.8236523 -1.6846286 244.82001
2.7423408 -5.833055 -1.5272245 244.82001
3.025527 -6.4354019 -1.511518 244.82001
4.625937 -9.83953 -2.0485227 244.82001
5.1336079 -11.009057 -1.9957036 245
5.9235249 -12.70304 -1.969856 245
6.4021463 -13.729446 -1.7715304 245
7.2796831 -15.611331 -1.6070305 245
10.432636 -22.37286 -1.7261937 245
1.9898615 -4.2672715 -2.0963206 245
11.337515 -24.313379 -1.2510445 245
2.0332868 -4.3603978 -2.0095952 245
12.196857 -26.156244 -0.67004919 245
2.1108546 -4.5267425 -1.9503686 245
11.993061 -25.719202 0 245
2.362931 -5.0673218 -2.0350199 245
31.740221 -68.067123 1.7436877 245
2.0931828 -4.4888449 -1.6735716 245
31.752302 -68.093033 3.5037258 245
2.5829167 -5.539083 -1.7525023 245
2.6934452 -5.7761121 -1.6684206 245
2.6664295 -5.7181768 -1.4949462 245
2.8821065 -6.1806974 -1.4495603 245
3.1355991 -6.7243142 -1.3978983 245
5.1100368 -11.043942 -1.9992702 245.17
5.9323826 -12.821218 -1.9854435 245.17
6.2896433 -13.593338 -1.7515526 245.17
8.1476908 -17.608999 -1.3567634 245.17
1.9779587 -4.2748151 -2.0971341 245.17
11.19066 -24.185541 -1.2427527 245.17
2.0311899 -4.3898597 -2.0203872 245.17
12.440774 -26.88732 -0.68782866 245.17
2.101326 -4.5414395 -1.954006 245.17
11.994804 -25.923479 0 245.17
2.3470964 -5.0726047 -2.0343359 245.17
31.506216 -68.092041 1.7419237 245.17
31.507341 -68.094475 3.4989743 245.17
2.2849288 -4.9382467 -1.697886 245.17
