# .PCD v0.7 - Point Cloud Data file format
VERSION 0.7
FIELDS x y z intensity
SIZE 4 4 4 4
TYPE F F F F
COUNT 1 1 1 1
WIDTH 1195
HEIGHT 1
VIEWPOINT 0 0 0 1 0 0 0
POINTS 1195
DATA ascii
7.444643 1.0277327 -1.2347099 172.14
7.39255 1.0205412 -1.0488085 172.14
7.4225445 1.0246819 -0.87624085 172.14
7.5276093 1.0391862 -0.70895123 172.14
7.5912919 1.0479776 -0.53586924 172.14
4.1338701 0.57068062 -1.857973 172.14
4.3838849 0.60519511 -1.8484885 172.14
8.4396629 1.1650952 -0.19780239 172.14
4.6451216 0.64125884 -1.8310622 172.14
4.8907614 0.67516941 -1.7969738 172.14
5.058394 0.69831109 -1.7254306 172.14
5.2596307 0.72609186 -1.6567793 172.14
5.1915622 0.71669501 -1.5027748 172.14
5.3478093 0.73826486 -1.2791427 172.14
7.8679395 1.0861688 -1.6882429 172.14
7.4996705 1.0353292 -1.4264117 172.14
7.4672179 1.0082804 -1.2379522 172.31
7.4524641 1.0062883 -1.0568805 172.31
7.4511437 1.00611 -0.87926078 172.31
7.528686 1.0165803 -0.70876545 172.31
7.659615 1.0342593 -0.54047316 172.31
4.1427879 0.55939066 -1.8612269 172.31
4.383832 0.59193826 -1.8477176 172.31
8.4529905 1.1413869 -0.1980345 172.31
4.6525426 0.62822157 -1.8332447 172.31
4.8927431 0.66065532 -1.7969738 172.31
5.0961204 0.68811685 -1.737595 172.31
5.2523017 0.70920563 -1.6538006 172.31
5.1212673 0.69151235 -1.4818264 172.31
5.4435 0.73502266 -1.4379617 172.31
5.554409 0.74999845 -1.3280213 172.31
7.8730664 1.0630811 -1.6886587 172.31
7.4949183 1.0120207 -1.4249306 172.31
7.4915261 0.99026895 -1.2415189 172.47
7.4925508 0.99040443 -1.0621691 172.47
7.4637709 0.9866001 -0.88042229 172.47
7.559134 0.99920571 -0.71136642 172.47
8.9303217 1.1804564 -0.62990093 172.47
4.1425228 0.54758024 -1.8604134 172.47
4.385468 0.57969403 -1.8477176 172.47
8.4462337 1.1164671 -0.19780239 172.47
4.652432 0.61498266 -1.8325171 172.47
4.8927059 0.64674336 -1.7962898 172.47
5.1055355 0.67487633 -1.7401559 172.47
5.2447982 0.69328475 -1.6508218 172.47
5.0545645 0.66813862 -1.4619806 172.47
5.2134395 0.68913954 -1.3766749 172.47
5.5545526 0.73422968 -1.3275602 172.47
7.8798833 1.041604 -1.6894904 172.47
7.5133033 0.99314755 -1.4278929 172.47
7.4985147 0.96723372 -1.2421674 172.64999
7.4936614 0.96660763 -1.0618907 172.64999
7.4747143 0.96416366 -0.88135147 172.64999
7.5642109 0.97570789 -0.7115522 172.64999
8.8864965 1.1462696 -0.62655264 172.64999
4.1424103 0.53432965 -1.8595999 172.64999
4.3909283 0.56638598 -1.8492593 172.64999
8.4695292 1.092485 -0.19826661 172.64999
4.6432548 0.59893358 -1.8281523 172.64999
4.8891215 0.63064802 -1.7942376 172.64999
5.0681677 0.65374315 -1.726711 172.64999
5.1447001 0.66361505 -1.6186514 172.64999
5.0661721 0.65348572 -1.4647369 172.64999
5.2424431 0.67622292 -1.3837659 172.64999
7.2399015 0.93387514 -1.7296556 172.64999
7.8753557 1.0158424 -1.6878271 172.64999
7.5495238 0.97381335 -1.4341881 172.64999
7.5424709 0.95016092 -1.2489765 172.82001
7.5141811 0.94659716 -1.0643959 172.82001
7.4893675 0.94347125 -0.88274533 172.82001
7.5690484 0.95350903 -0.71173799 172.82001
8.8720436 1.1176535 -0.62529701 172.82001
4.1457901 0.52226496 -1.8604134 172.82001
8.9098206 1.1224126 -0.41878501 172.82001
4.3889275 0.55289406 -1.8477176 172.82001
8.4985228 1.0705993 -0.19887009 172.82001
4.6505566 0.58585274 -1.8303347 172.82001
4.8928361 0.61637384 -1.7949218 172.82001
5.0061688 0.63065088 -1.7049431 172.82001
5.2697721 0.66385823 -1.6573751 172.82001
5.1081448 0.64349735 -1.4763137 172.82001
5.5573258 0.70008278 -1.4663259 172.82001
5.6149287 0.70733929 -1.3409326 172.82001
7.8841581 0.99320489 -1.6890746 172.82001
7.56213 0.95263749 -1.4360397 172.82001
7.5219126 0.92357475 -1.2450856 173
7.5289125 0.92443424 -1.0660659 173
7.5100393 0.92211688 -0.88483602 173
7.5937481 0.93239504 -0.71378165 173
8.8339252 1.0846696 -0.62236726 173
4.1510377 0.50968331 -1.8620404 173
8.8934736 1.0919813 -0.41785333 173
4.3943062 0.53955293 -1.8492593 173
42.614403 5.2323909 -0.99681079 173
4.654223 0.57146674 -1.8310622 173
4.898479 0.6014576 -1.7962898 173
5.0269313 0.61722958 -1.7113454 173
5.2813063 0.64846289 -1.6603538 173
5.3811049 0.66071659 -1.5545946 173
5.5172496 0.67743307 -1.4551828 173
5.3795352 0.66052389 -1.2842151 173
7.8891811 0.96866965 -1.6894904 173
7.5650854 0.92887568 -1.4360397 173
7.5419402 0.90599775 -1.2480037 173.14999
7.5431051 0.90613776 -1.067736 173.14999
7.5301781 0.90458483 -0.88692671 173.14999
7.6001172 0.91298652 -0.71415317 173.14999
8.8109827 1.0584453 -0.62055361 173.14999
4.1505437 0.49859628 -1.8612269 173.14999
8.8625813 1.0646437 -0.41626951 173.14999
4.3920388 0.52760661 -1.8477176 173.14999
42.760963 5.1367865 -0.99992102 173.14999
4.6501541 0.55861348 -1.8288797 173.14999
4.9000368 0.58863133 -1.7962898 173.14999
5.002193 0.60090315 -1.7023821 173.14999
5.347436 0.64237648 -1.6806093 173.14999
5.5221586 0.66336554 -1.5948378 173.14999
5.5017152 0.66090977 -1.4506243 173.14999
5.3677206 0.64481324 -1.2809873 173.14999
7.8955746 0.94847918 -1.690322 173.14999
7.581151 0.91070807 -1.4386318 173.14999
7.5723462 0.88418722 -1.2525431 173.34
7.5657406 0.88341588 -1.0705194 173.34
7.5449748 0.88099122 -0.88832057 173.34
7.6288161 0.89078093 -0.71656841 173.34
8.7708483 1.0241306 -0.61748433 173.34
4.1449151 0.48398224 -1.857973 173.34
8.8323298 1.0313095 -0.41468567 173.34
4.3864322 0.51218307 -1.8446343 173.34
43.039909 5.0255675 -1.0060487 173.34
4.6482801 0.54275781 -1.8274248 173.34
4.8982282 0.57194304 -1.7949218 173.34
5.0813189 0.59332168 -1.7286317 173.34
5.1333551 0.59939772 -1.6126939 173.34
5.573976 0.65084696 -1.6091709 173.34
5.4058676 0.63121772 -1.4247926 173.34
7.8928471 0.92161059 -1.6890746 173.34
7.6114593 0.88875431 -1.4438161 173.34
7.5613599 0.85883456 -1.2502735 173.52
7.5842214 0.86143124 -1.0727463 173.52
7.5634956 0.85907716 -0.89017898 173.52
7.6216836 0.8656863 -0.71563947 173.52
8.8037577 0.99994862 -0.61957699 173.52
4.1500459 0.47137064 -1.8595999 173.52
8.80972 1.0006258 -0.4134745 173.52
4.3825188 0.49777535 -1.8423218 173.52
43.826321 4.9778824 -1.0240602 173.52
4.6444092 0.52752137 -1.8252424 173.52
4.900001 0.55655205 -1.7949218 173.52
5.0737443 0.5762862 -1.7254306 173.52
5.0157013 0.56969351 -1.5751617 173.52
5.1404586 0.58386368 -1.4834802 173.52
5.8595977 0.66554493 -1.5438209 173.52
7.2339096 0.8216421 -1.7250444 173.52
7.8918161 0.89636844 -1.6882429 173.52
7.6454597 0.86838681 -1.4497409 173.52
7.5754981 0.83901948 -1.2522188 173.67999
7.6082511 0.84264696 -1.075808 173.67999
7.5954809 0.84123266 -0.89366347 173.67999
7.6339679 0.84549522 -0.71656841 173.67999
8.60425 0.95295817 -0.60534668 173.67999
4.1567941 0.46038309 -1.8620404 173.67999
8.8263798 0.97756004 -0.41412666 173.67999
4.3967314 0.48695719 -1.8477176 173.67999
44.068592 4.8807888 -1.0293987 173.67999
4.6477156 0.51475477 -1.8259698 173.67999
4.8978 0.54245275 -1.7935536 173.67999
5.0791006 0.56253254 -1.726711 173.67999
5.4708004 0.60591501 -1.7175457 173.67999
5.5968485 0.61987543 -1.6146836 173.67999
7.2342415 0.80122381 -1.7245833 173.67999
7.8903995 0.87389618 -1.6874113 173.67999
7.6380877 0.8459515 -1.4478893 173.67999
7.627295 0.81916219 -1.2603248 173.87
7.5932808 0.81550908 -1.073303 173.87
7.6199551 0.81837386 -0.89621878 173.87
7.6505895 0.82166398 -0.71786886 173.87
8.567688 0.92015922 -0.60255641 173.87
4.1564813 0.446401 -1.8612269 173.87
9.1970577 0.9877528 -0.43136254 173.87
4.400157 0.47257149 -1.8484885 173.87
44.438404 4.7726302 -1.0376618 173.87
4.6549544 0.4999364 -1.8281523 173.87
4.9033093 0.52660942 -1.7949218 173.87
5.1016612 0.54791218 -1.7337536 173.87
5.4443054 0.58471173 -1.7086096 173.87
5.6982732 0.61198759 -1.6433499 173.87
5.8789434 0.63139135 -1.5478729 173.87
5.6772575 0.60973054 -1.3529217 173.87
7.8932543 0.84772587 -1.6874113 173.87
7.6897054 0.82586497 -1.457147 173.87
7.6158133 0.79642272 -1.2580552 174.03
7.6250753 0.79739136 -1.0774782 174.03
7.6261621 0.79750496 -0.89668339 174.03
7.6607761 0.80112475 -0.71861202 174.03
8.528554 0.89187247 -0.59962666 174.03
4.1468086 0.43365201 -1.856346 174.03
9.201767 0.96227372 -0.4314557 174.03
4.3996243 0.46009016 -1.8477176 174.03
8.5073042 0.88965029 -0.19859156 174.03
4.654479 0.4867416 -1.8274248 174.03
4.9028916 0.51271933 -1.7942376 174.03
5.1427455 0.53780198 -1.7471986 174.03
5.2693233 0.55103886 -1.6532048 174.03
5.3749037 0.56207991 -1.5496333 174.03
7.8955908 0.82568043 -1.6874113 174.03
7.6939363 0.80459249 -1.4575173 174.03
7.6438026 0.77508134 -1.2622703 174.21001
7.6472468 0.77543056 -1.0802616 174.21001
7.6227007 0.77294159 -0.8959865 174.21001
7.6949544 0.78026807 -0.72158456 174.21001
8.4955845 0.86145198 -0.5971154 174.21001
4.1590571 0.42172825 -1.8612269 174.21001
9.2325716 0.93618244 -0.43276003 174.21001
4.3992119 0.44607991 -1.8469467 174.21001
45.285519 4.5919499 -1.0567875 174.21001
4.6633992 0.47286853 -1.8303347 174.21001
4.9007387 0.49693471 -1.7928696 174.21001
5.1444097 0.52164292 -1.7471986 174.21001
5.4210868 0.549698 -1.7002691 174.21001
5.588954 0.56671977 -1.6108247 174.21001
5.7940402 0.58751547 -1.5245737 174.21001
5.8685861 0.59507442 -1.3976502 174.21001
7.8903604 0.80008227 -1.685748 174.21001
7.7296677 0.78378803 -1.4638125 174.21001
7.6637454 0.75413775 -1.2651885 174.38
7.6396589 0.75176758 -1.0788698 174.38
7.6427526 0.75207204 -0.89807719 174.38
7.7130899 0.75899339 -0.7230708 174.38
8.4842043 0.83487362 -0.59613883 174.38
4.1621084 0.40956515 -1.8620404 174.38
9.2492266 0.91015434 -0.43341219 174.38
4.4041891 0.43338671 -1.8484885 174.38
45.746658 4.5016217 -1.0672324 174.38
4.6629281 0.45884746 -1.8296072 174.38
4.9078026 0.48294392 -1.7949218 174.38
5.1779909 0.50953132 -1.7580825 174.38
5.4017935 0.53155428 -1.6937158 174.38
5.7628064 0.56707913 -1.6604394 174.38
5.2643194 0.51802635 -1.384779 174.38
5.8141599 0.57213247 -1.3842778 174.38
7.8946462 0.77685916 -1.6861638 174.38
7.7867265 0.76623952 -1.4741809 174.38
7.6698785 0.73177058 -1.265837 174.55
7.6950889 0.73417586 -1.0863853 174.55
7.6568155 0.73052424 -0.89947098 174.55
7.7311664 0.73761797 -0.7245571 174.55
8.5204077 0.81291819 -0.59851056 174.55
4.1651239 0.39738768 -1.8628539 174.55
9.2837067 0.88574332 -0.43490288 174.55
4.4036183 0.42014205 -1.8477176 174.55
45.974781 4.3863788 -1.0722458 174.55
4.6587052 0.44447944 -1.8274248 174.55
4.9054718 0.46802306 -1.7935536 174.55
5.1662765 0.492906 -1.7536008 174.55
5.3615341 0.51153523 -1.6806093 174.55
5.7529807 0.54888248 -1.6571318 174.55
7.8910742 0.75287449 -1.6849164 174.55
7.7013688 0.71307868 -1.2707006 174.71001
7.7049971 0.71341467 -1.0874987 174.71001
7.6983857 0.71280247 -0.90411705 174.71001
7.7331963 0.71602565 -0.7245571 174.71001
8.542511 0.79096103 -0.59990567 174.71001
4.1571212 0.38491267 -1.8587865 174.71001
9.3040485 0.86147261 -0.43574136 174.71001
4.399262 0.40733278 -1.8454051 174.71001
4.6654935 0.43198344 -1.8296072 174.71001
4.9048886 0.45414934 -1.7928696 174.71001
5.1638594 0.47812775 -1.7523204 174.71001
5.4789076 0.50729841 -1.7169501 174.71001
5.7334332 0.53086525 -1.6510677 174.71001
6.2728801 0.58081329 -1.6491735 174.71001
6.2010484 0.5741623 -1.4755793 174.71001
7.893146 0.73083556 -1.6849164 174.71001
7.7548003 0.69209749 -1.2791308 174.89999
7.7250748 0.68944454 -1.0900037 174.89999
7.7125788 0.68832928 -0.90551084 174.89999
7.7632966 0.69285578 -0.72715807 174.89999
8.5212402 0.76050043 -0.59823149 174.89999
4.1583748 0.37112504 -1.8587865 174.89999
9.4043598 0.83931673 -0.44030654 174.89999
4.4061027 0.39323419 -1.8477176 174.89999
47.0881 4.2025008 -1.097592 174.89999
4.6613331 0.41601291 -1.8274248 174.89999
4.9044957 0.43771458 -1.7921855 174.89999
5.1427693 0.45897993 -1.7446376 174.89999
5.5128875 0.49201211 -1.7270777 174.89999
5.6643105 0.50552624 -1.6306705 174.89999
6.3113875 0.56327635 -1.658797 174.89999
6.1796575 0.55151975 -1.4700458 174.89999
7.887732 0.70396131 -1.683253 174.89999
8.6194839 0.76926839 -1.6304493 174.89999
7.7509208 0.66857672 -1.2781582 175.07001
7.7349792 0.66720164 -1.0911171 175.07001
7.7343783 0.66714978 -0.90783387 175.07001
7.7593665 0.66930521 -0.72660071 175.07001
8.3863049 0.72338343 -0.58860511 175.07001
4.1594572 0.35878527 -1.8587865 175.07001
8.0453491 0.69397342 -0.37658042 175.07001
4.403573 0.37984213 -1.8461759 175.07001
47.142197 4.0663781 -1.0985669 175.07001
4.6718278 0.40298116 -1.8310622 175.07001
4.9039001 0.42299923 -1.7915015 175.07001
5.1497717 0.44420755 -1.7465583 175.07001
5.4972038 0.47417623 -1.721716 175.07001
5.6677008 0.4888829 -1.6312219 175.07001
6.3554392 0.54820561 -1.6699401 175.07001
5.7702165 0.49772567 -1.3722887 175.07001
7.8858876 0.68021864 -1.6824214 175.07001
8.6217279 0.74369055 -1.6304493 175.07001
7.7823715 0.64803284 -1.2830218 175.24001
7.7369251 0.6442486 -1.0911171 175.24001
7.7442422 0.64485788 -0.90876305 175.24001
7.7791786 0.64776701 -0.7282728 175.24001
8.32479 0.69319969 -0.58414072 175.24001
4.1605039 0.34644237 -1.8587865 175.24001
8.0533457 0.67059672 -0.37685993 175.24001
4.4083586 0.36708111 -1.8477176 175.24001
47.171986 3.9279799 -1.0989847 175.24001
4.6562934 0.38772646 -1.8245149 175.24001
4.9070067 0.40860316 -1.7921855 175.24001
5.1529555 0.42908317 -1.7471986 175.24001
5.5119052 0.45897266 -1.7258862 175.24001
5.8089867 0.48371044 -1.6714649 175.24001
5.7284679 0.47700572 -1.5048201 175.24001
7.8937197 0.65730476 -1.6836689 175.24001
8.6376076 0.71924782 -1.6330415 175.24001
7.7981396 0.6246838 -1.2852914 175.42
7.7803693 0.62326026 -1.0969623 175.42
7.7699909 0.62242889 -0.9115507 175.42
7.789115 0.62396085 -0.72901589 175.42
8.2712412 0.66258246 -0.58023435 175.42
4.1615715 0.33337006 -1.8587865 175.42
4.4094901 0.35323003 -1.8477176 175.42
4.6723452 0.3742865 -1.8303347 175.42
4.9063926 0.39303529 -1.7915015 175.42
5.1278362 0.41077441 -1.7382352 175.42
5.4904823 0.43982482 -1.7187372 175.42
5.7395711 0.45977855 -1.6510677 175.42
5.5621481 0.44556573 -1.4607544 175.42
5.7556901 0.46106976 -1.3681387 175.42
7.8918457 0.63219029 -1.6828372 175.42
8.6398239 0.69210845 -1.6330415 175.42
7.8216033 0.60321283 -1.2888581 175.59
7.7920575 0.60093421 -1.0983541 175.59
7.8015122 0.60166335 -0.91503519 175.59
7.8107867 0.60237861 -0.73087376 175.59
8.2353754 0.63512349 -0.57758361 175.59
4.1625423 0.32102099 -1.8587865 175.59
7.9915586 0.61632001 -0.37378541 175.59
4.4105186 0.34014529 -1.8477176 175.59
48.718166 3.7572119 -1.1344508 175.59
4.6771498 0.36070824 -1.8317896 175.59
4.9056635 0.37833151 -1.7908175 175.59
5.1309214 0.3957037 -1.7388755 175.59
5.4555955 0.42074302 -1.7074181 175.59
5.6086488 0.43254671 -1.6130298 175.59
5.517148 0.42549002 -1.4485983 175.59
7.8819838 0.60786945 -1.6803423 175.59
8.6437988 0.66662169 -1.6334118 175.59
7.8331995 0.58073258 -1.2904793 175.75999
7.8135571 0.57927638 -1.1011375 175.75999
7.8072252 0.57880694 -0.91549981 175.75999
7.8423281 0.58140934 -0.73366052 175.75999
8.2312546 0.61024338 -0.57716507 175.75999
4.1671205 0.30893925 -1.8604134 175.75999
8.0491381 0.59674174 -0.37639409 175.75999
4.4041471 0.32651174 -1.8446343 175.75999
49.534672 3.672369 -1.1532052 175.75999
4.6559048 0.3451764 -1.8230599 175.75999
4.9086385 0.36391342 -1.7915015 175.75999
5.1358519 0.38075843 -1.7401559 175.75999
5.5025153 0.40794188 -1.721716 175.75999
5.7556195 0.42670634 -1.6549267 175.75999
5.6108246 0.41597164 -1.3330936 175.75999
7.8876548 0.58476973 -1.6811739 175.75999
8.0734072 0.59854096 -1.525283 175.75999
7.834693 0.56022334 -1.2904793 175.91
7.8328266 0.56008989 -1.1036427 175.91
7.8245649 0.55949914 -0.91735822 175.91
7.8537545 0.56158638 -0.7345894 175.91
8.3044662 0.59381473 -0.58218753 175.91
4.1679153 0.29802871 -1.8604134 175.91
8.0666151 0.57680702 -0.37713942 175.91
4.417872 0.31590199 -1.8500302 175.91
50.002819 3.575475 -1.163882 175.91
4.675375 0.33431485 -1.8303347 175.91
4.9077001 0.35092735 -1.7908175 175.91
5.1179318 0.36596009 -1.7337536 175.91
5.5264168 0.39516899 -1.728865 175.91
5.7202821 0.40903142 -1.6444525 175.91
6.1041899 0.43648294 -1.6020687 175.91
5.5944238 0.40003189 -1.3289436 175.91
7.8911099 0.56425744 -1.6815897 175.91
8.0220156 0.57361794 -1.5152848 175.91
7.8858256 0.53621894 -1.2985853 176.11
7.8465896 0.53355098 -1.1053128 176.11
7.8423257 0.533261 -0.91921663 176.11
7.8417597 0.53322256 -0.73328894 176.11
8.1870565 0.55670196 -0.57381678 176.11
4.1634612 0.2831063 -1.857973 176.11
8.0984774 0.55067879 -0.37853694 176.11
4.4134245 0.30010322 -1.8477176 176.11
51.730572 3.517566 -1.2038046 176.11
4.6820898 0.31837189 -1.8325171 176.11
4.9107699 0.33392164 -1.7915015 176.11
5.0794802 0.34539357 -1.7203087 176.11
5.0153685 0.34103411 -1.5686084 176.11
5.7772994 0.39284378 -1.6604394 176.11
5.9029903 0.40139046 -1.5488858 176.11
7.8852243 0.53617805 -1.6799265 176.11
7.98279 0.54281229 -1.5075084 176.11
7.9444036 0.51791877 -1.3079883 176.27
7.8678126 0.51292557 -1.1080962 176.27
7.8695536 0.51303905 -0.92223656 176.27
7.8829608 0.51391315 -0.73700464 176.27
4.1624126 0.27135977 -1.8571595 176.27
8.0999842 0.52806145 -0.37853694 176.27
4.4124036 0.28765741 -1.8469467 176.27
4.6811013 0.30517462 -1.8317896 176.27
4.9098082 0.32008466 -1.7908175 176.27
5.0842061 0.33145419 -1.7215892 176.27
5.2658777 0.34329787 -1.6466516 176.27
5.6325717 0.36720371 -1.6185426 176.27
5.4619575 0.35608086 -1.4328967 176.27
5.7890844 0.37740722 -1.3745943 176.27
7.8925471 0.51453811 -1.6811739 176.27
7.9744687 0.51987875 -1.5056568 176.27
7.9262938 0.49173614 -1.3047459 176.45
7.9089198 0.49065828 -1.1136632 176.45
7.8810396 0.48892865 -0.92339808 176.45
7.9063993 0.49050191 -0.73904824 176.45
8.0388775 0.49872065 -0.56321377 176.45
4.1705389 0.25873438 -1.8604134 176.45
4.4151273 0.27390832 -1.8477176 176.45
53.067646 3.2922423 -1.2344429 176.45
4.678318 0.29023629 -1.8303347 176.45
4.9107895 0.30465847 -1.7908175 176.45
5.1343918 0.31853044 -1.7382352 176.45
5.1830864 0.32155138 -1.6204386 176.45
5.7891231 0.35914907 -1.6631958 176.45
5.4263582 0.33664367 -1.4232732 176.45
7.8960772 0.48986155 -1.6815897 176.45
7.9682159 0.49433693 -1.5041757 176.45
7.9316583 0.46844894 -1.3053944 176.62
7.8965011 0.46637255 -1.1117147 176.62
7.8983197 0.46647993 -0.92525649 176.62
7.8998685 0.46657142 -0.73830509 176.62
8.0403214 0.47486666 -0.56321377 176.62
4.1731119 0.24646674 -1.8612269 176.62
8.1489286 0.48128107 -0.38067976 176.62
4.4177628 0.26091596 -1.8484885 176.62
53.141052 3.1385455 -1.2359284 176.62
4.677299 0.27624434 -1.8296072 176.62
4.9097958 0.28997576 -1.7901335 176.62
5.2261043 0.30865714 -1.7689664 176.62
5.105876 0.30155638 -1.5960128 176.62
5.3026919 0.31318048 -1.523172 176.62
5.8986034 0.34837538 -1.5468599 176.62
7.9014015 0.46666196 -1.6824214 176.62
7.9696474 0.4706926 -1.5041757 176.62
7.9743929 0.44723392 -1.3122034 176.78999
7.933444 0.44493738 -1.116725 176.78999
7.9175191 0.44404423 -0.92734718 176.78999
7.937006 0.44513714 -0.74164921 176.78999
8.0735664 0.45279598 -0.56544596 176.78999
4.1628795 0.23346995 -1.856346 176.78999
8.1722622 0.4583312 -0.3817046 176.78999
4.4148326 0.24760041 -1.8469467 176.78999
53.064289 2.9760449 -1.2339323 176.78999
4.6818185 0.26257396 -1.8310622 176.78999
4.9125109 0.27551207 -1.7908175 176.78999
5.2307806 0.29336184 -1.770247 176.78999
5.2420897 0.2939961 -1.6383111 176.78999
5.1999445 0.29163244 -1.4934032 176.78999
5.8583355 0.32855746 -1.3902724 176.78999
7.9105644 0.44365421 -1.6840847 176.78999
7.9965191 0.44847485 -1.5089896 176.78999
8.0229082 0.42748368 -1.3199853 176.95
8.0117874 0.42689109 -1.1275805 176.95
7.9385648 0.42298961 -0.92967021 176.95
7.9541264 0.42381877 -0.74313545 176.95
8.096715 0.4314163 -0.5669806 176.95
4.1653399 0.22194131 -1.8571595 176.95
8.2014399 0.43699637 -0.38300893 176.95
4.4099779 0.23497634 -1.8446343 176.95
4.6825333 0.24949886 -1.8310622 176.95
4.9076309 0.2614927 -1.7887653 176.95
5.2088742 0.27754384 -1.7625642 176.95
5.2352643 0.27894995 -1.6359282 176.95
5.0874701 0.27107507 -1.460878 176.95
5.4909153 0.29257178 -1.4394813 176.95
5.8650599 0.3125073 -1.3916557 176.95
7.9117727 0.42156205 -1.6840847 176.95
8.0814438 0.40373206 -1.3293883 177.14
8.0190926 0.40061715 -1.1284155 177.14
7.9478598 0.39705852 -0.93059939 177.14
7.9773655 0.39853257 -0.74517912 177.14
4.1697025 0.20830965 -1.8587865 177.14
8.2008486 0.40969732 -0.38291577 177.14
4.4162626 0.22062728 -1.8469467 177.14
39.823589 1.9895036 -0.92573935 177.14
4.6851954 0.23406261 -1.8317896 177.14
4.9103479 0.24531075 -1.7894493 177.14
5.2192283 0.26074177 -1.7657653 177.14
5.2380672 0.26168293 -1.6365238 177.14
5.2304306 0.26130143 -1.5016723 177.14
5.9227786 0.29588968 -1.5524313 177.14
5.8641205 0.29295924 -1.3911946 177.14
7.9209423 0.39571378 -1.685748 177.14
8.096405 0.38040057 -1.3316579 177.31
8.0340948 0.37747297 -1.1303639 177.31
7.9728141 0.37459376 -0.93338698 177.31
7.9844804 0.37514189 -0.74573648 177.31
8.3204813 0.39092851 -0.58246654 177.31
4.1739526 0.19610849 -1.8604134 177.31
8.2299671 0.3866758 -0.38422009 177.31
4.4187412 0.20760962 -1.8477176 177.31
4.6840086 0.22007291 -1.8310622 177.31
4.9072995 0.230564 -1.7880813 177.31
5.1840181 0.24356531 -1.7536008 177.31
5.2655201 0.24739458 -1.6448643 177.31
5.127481 0.24090898 -1.4719034 177.31
5.7129693 0.26841748 -1.4972225 177.31
5.7483253 0.27007866 -1.3635274 177.31
7.9201274 0.37211835 -1.6853322 177.31
8.4714413 0.39802119 -1.5978626 177.31
8.0797539 0.35559544 -1.3287398 177.48
8.0292435 0.35337245 -1.1295289 177.48
7.997705 0.35198444 -0.93617463 177.48
8.0074425 0.35241297 -0.74778008 177.48
8.3076525 0.36562541 -0.58148998 177.48
4.1599135 0.18308061 -1.8539057 177.48
8.2270861 0.36207968 -0.38403377 177.48
4.411963 0.19417349 -1.8446343 177.48
39.583008 1.742075 -0.91989022 177.48
4.6846409 0.20617422 -1.8310622 177.48
4.9117174 0.21616802 -1.7894493 177.48
5.1847181 0.22818296 -1.7536008 177.48
5.2090101 0.22925207 -1.6269919 177.48
5.1992378 0.22882199 -1.4923006 177.48
5.4102707 0.23810969 -1.4177016 177.48
5.762711 0.25362083 -1.3667552 177.48
7.9211969 0.34861726 -1.6853322 177.48
8.2389259 0.36260074 -1.5537964 177.48
8.0591402 0.32932407 -1.3251731 177.66
8.0441656 0.3287122 -1.1314774 177.66
8.0186195 0.32766825 -0.93849766 177.66
8.0144787 0.32749906 -0.74833745 177.66
8.1971254 0.33496264 -0.57367724 177.66
4.1604681 0.17001098 -1.8539057 177.66
8.3499489 0.34120753 -0.38971695 177.66
4.4070196 0.18008591 -1.8423218 177.66
4.683404 0.19137993 -1.8303347 177.66
4.9086165 0.20058289 -1.7880813 177.66
5.183516 0.21181622 -1.7529607 177.66
5.2268729 0.21358794 -1.6323535 177.66
5.3497629 0.21860965 -1.5353 177.66
5.335598 0.21803081 -1.397948 177.66
7.2296276 0.29542735 -1.7144387 177.66
7.9222527 0.32373041 -1.6853322 177.66
8.1084509 0.33133909 -1.528986 177.66
8.0975523 0.30683053 -1.3313336 177.83
8.05896 0.30536821 -1.1334257 177.83
8.0116158 0.30357426 -0.93756843 177.83
8.0213852 0.30394444 -0.74889475 177.83
8.1921024 0.31041321 -0.5732587 177.83
4.170083 0.15801181 -1.857973 177.83
8.4108171 0.3187007 -0.39251196 177.83
4.4149108 0.16728877 -1.8454051 177.83
35.634819 1.3502661 -0.82792902 177.83
4.6876745 0.17762426 -1.8317896 177.83
4.9091902 0.18601787 -1.7880813 177.83
5.1822286 0.19636378 -1.7523204 177.83
5.2103133 0.19742796 -1.6269919 177.83
5.285069 0.20026059 -1.5165567 177.83
5.47156 0.20732707 -1.4334033 177.83
7.2401962 0.27434382 -1.7167443 177.83
7.9173141 0.300001 -1.6840847 177.83
8.1270742 0.30794919 -1.5323187 177.83
8.1181498 0.28349206 -1.3345761 178
8.0736856 0.28193933 -1.1353742 178
8.0462313 0.28098059 -0.94151753 178
8.0739956 0.28195012 -0.75372517 178
8.1909933 0.28603581 -0.57311916 178
4.1668816 0.14551072 -1.856346 178
34.964664 1.220993 -1.6315379 178
4.417232 0.15425315 -1.8461759 178
35.604698 1.2433434 -0.82713985 178
4.6863189 0.16364987 -1.8310622 178
4.9097204 0.17145121 -1.7880813 178
5.1808944 0.18092082 -1.7516801 178
5.2433128 0.18310052 -1.6371197 178
5.2914042 0.1847799 -1.5182105 178
5.4315453 0.18967374 -1.4227667 178
5.6850333 0.19852574 -1.3478495 178
7.9259896 0.27678165 -1.685748 178
8.1711655 0.28534338 -1.5404655 178
8.1346903 0.26132777 -1.33717 178.16
8.1061134 0.26040974 -1.1398277 178.16
8.0688238 0.25921181 -0.9440729 178.16
8.100625 0.26023343 -0.75614035 178.16
8.2276545 0.26431423 -0.57563043 178.16
4.1617932 0.13369803 -1.8539057 178.16
34.922012 1.1218733 -1.6293951 178.16
4.4102678 0.1416803 -1.8430926 178.16
35.510105 1.1407658 -0.82486522 178.16
4.6904817 0.15068221 -1.8325171 178.16
4.9101801 0.15774004 -1.7880813 178.16
5.1851673 0.16657403 -1.7529607 178.16
5.2399874 0.16833512 -1.6359282 178.16
5.2957425 0.17012627 -1.5193131 178.16
5.4610605 0.17543714 -1.4303641 178.16
7.9247761 0.25458425 -1.6853322 178.16
8.1837168 0.26290274 -1.5426873 178.16
8.1453762 0.23463485 -1.3387913 178.35001
8.1247501 0.23404071 -1.1423328 178.35001
8.079567 0.23273918 -0.94523436 178.35001
8.12533 0.23405741 -0.75836974 178.35001
8.2404509 0.23737358 -0.57646751 178.35001
4.1640401 0.1199489 -1.854719 178.35001
4.4144025 0.12716082 -1.8446343 178.35001
35.397774 1.0196646 -0.82217276 178.35001
4.6816444 0.13485897 -1.8288797 178.35001
4.9087973 0.1414023 -1.7873973 178.35001
5.1989489 0.14976038 -1.7574422 178.35001
5.2290664 0.15062794 -1.6323535 178.35001
5.3404775 0.15383723 -1.5319924 178.35001
5.5699162 0.16044644 -1.4587283 178.35001
5.5947104 0.16116065 -1.3261769 178.35001
7.9255767 0.22830334 -1.6853322 178.35001
8.1716099 0.21398112 -1.3430064 178.5
8.1391935 0.21313229 -1.1442813 178.5
8.1139069 0.21247014 -0.94918352 178.5
8.1279058 0.2128367 -0.75855553 178.5
8.2609892 0.2163216 -0.57786262 178.5
4.16434 0.10904708 -1.854719 178.5
20.640486 0.54049015 -0.96287942 178.5
4.4147205 0.11560352 -1.8446343 178.5
35.396324 0.92688537 -0.8220799 178.5
4.6875687 0.12274831 -1.8310622 178.5
4.9072719 0.12850145 -1.7867132 178.5
5.2087936 0.13639706 -1.7606435 178.5
5.2294426 0.13693777 -1.6323535 178.5
5.4677048 0.14317688 -1.5683765 178.5
5.3304844 0.13958365 -1.3959219 178.5
5.5659313 0.14574905 -1.3192601 178.5
7.928103 0.20760469 -1.685748 178.5
8.1949568 0.21459249 -1.5445387 178.5
8.1781931 0.18701728 -1.3439791 178.69
8.1596565 0.18659337 -1.1470647 178.69
8.1324406 0.18597101 -0.95127422 178.69
8.1584291 0.18656531 -0.76134229 178.69
8.2816067 0.18938211 -0.57925779 178.69
4.1719851 0.095404111 -1.857973 178.69
20.52632 0.46939176 -0.95747578 178.69
4.4187694 0.10104753 -1.8461759 178.69
35.383213 0.80913615 -0.82170856 178.69
4.6879501 0.1072031 -1.8310622 178.69
4.9076715 0.11222763 -1.7867132 178.69
5.220583 0.11938323 -1.7644849 178.69
5.2432289 0.1199011 -1.6365238 178.69
5.6411314 0.12900025 -1.6179913 178.69
5.4856615 0.12544499 -1.4364423 178.69
5.920485 0.13538845 -1.4031837 178.69
7.9307036 0.18135773 -1.6861638 178.69
8.2113428 0.18777531 -1.5475012 178.69
8.2280407 0.1637329 -1.3520851 178.86
8.2037373 0.16324928 -1.1531883 178.86
8.1567898 0.16231506 -0.95406181 178.86
8.200757 0.16318998 -0.76524377 178.86
8.3300056 0.16576195 -0.58260608 178.86
4.163116 0.082843423 -1.8539057 178.86
20.415766 0.40626109 -0.95225841 178.86
4.4116693 0.087789483 -1.8430926 178.86
35.379459 0.70402932 -0.82156926 178.86
4.6863847 0.093256146 -1.8303347 178.86
58.886341 1.1718017 0 178.86
4.9079828 0.097665809 -1.7867132 178.86
5.1981816 0.10344058 -1.7568021 178.86
5.2702851 0.10487541 -1.6448643 178.86
5.7202973 0.11383037 -1.6405935 178.86
5.6523695 0.11247864 -1.4800014 178.86
6.0823565 0.12103511 -1.4414566 178.86
7.9292512 0.15778717 -1.685748 178.86
8.209898 0.16337189 -1.5471309 178.86
8.2146778 0.13908526 -1.3498154 179.03
8.3725071 0.14175752 -1.1768477 179.03
8.1830559 0.13854986 -0.95708174 179.03
8.1972227 0.13878973 -0.76487219 179.03
8.340435 0.1412145 -0.58330363 179.03
4.1578631 0.07039807 -1.8514652 179.03
20.36095 0.34473759 -0.94964975 179.03
4.4119105 0.074699432 -1.8430926 179.03
35.367397 0.59881645 -0.8212443 179.03
4.6847782 0.07931944 -1.8296072 179.03
4.9063716 0.083071306 -1.7860292 179.03
5.1965709 0.087984763 -1.7561618 179.03
5.3030252 0.08978717 -1.6549921 179.03
5.6763978 0.096108861 -1.6279142 179.03
5.6623511 0.095871024 -1.4825339 179.03
6.1897097 0.1047999 -1.466818 179.03
7.9296842 0.13425995 -1.685748 179.03
8.2446747 0.11368561 -1.354679 179.21001
8.3610287 0.11529002 -1.1751777 179.21001
8.1973543 0.11303312 -0.95870787 179.21001
8.215539 0.11328386 -0.76654422 179.21001
8.3567972 0.11523167 -0.58441973 179.21001
4.1653714 0.057436202 -1.854719 179.21001
20.298008 0.27988875 -0.94666839 179.21001
4.4195046 0.060940437 -1.8461759 179.21001
35.365108 0.48764858 -0.82115149 179.21001
4.6887298 0.064652778 -1.8310622 179.21001
4.9160047 0.067786664 -1.7894493 179.21001
5.2025056 0.071737215 -1.7580825 179.21001
5.2918267 0.07296887 -1.6514176 179.21001
5.7381868 0.079123713 -1.645555 179.21001
5.9354053 0.081843153 -1.5539509 179.21001
7.2544332 0.1000312 -1.7190498 179.21001
7.9281106 0.10932052 -1.6853322 179.21001
8.2370815 0.089137278 -1.3533821 179.38
8.3157845 0.089988962 -1.1687757 179.38
8.2115583 0.088861078 -0.96033394 179.38
8.2676115 0.089467652 -0.77137464 179.38
8.3810425 0.09069515 -0.5860939 179.38
4.1691775 0.045116603 -1.856346 179.38
20.280771 0.21946763 -0.94582987 179.38
4.4178205 0.047807284 -1.8454051 179.38
35.372395 0.38278112 -0.82129073 179.38
4.6833124 0.050680295 -1.8288797 179.38
4.9161839 0.053200305 -1.7894493 179.38
5.1742759 0.055993237 -1.748479 179.38
5.314929 0.057515316 -1.6585666 179.38
5.6153622 0.060766436 -1.6102735 179.38
6.0749192 0.06573952 -1.5904191 179.38
7.2663736 0.078632802 -1.7218165 179.38
7.9284 0.085796893 -1.6853322 179.38
8.6375141 0.093470544 -1.6274869 179.38
8.3596659 0.065658011 -1.373485 179.55
8.2367954 0.064692974 -1.1576419 179.55
8.2395954 0.064714961 -0.96358621 179.55
8.2598753 0.064874239 -0.77063149 179.55
8.4171858 0.066109784 -0.58860511 179.55
4.1638117 0.032703172 -1.8539057 179.55
20.275339 0.15924542 -0.94555038 179.55
4.4105611 0.03464118 -1.8423218 179.55
35.401367 0.27804741 -0.82194066 179.55
4.6834421 0.036784425 -1.8288797 179.55
4.9125614 0.03858396 -1.7880813 179.55
5.1782084 0.040670391 -1.7497594 179.55
5.3055305 0.041670397 -1.6555878 179.55
5.4578757 0.042866934 -1.565069 179.55
5.8255062 0.045754358 -1.5250802 179.55
7.2685213 0.057088006 -1.7222776 179.55
7.9286199 0.062272515 -1.6853322 179.55
8.6338224 0.06781128 -1.6267463 179.55
8.3538961 0.04228323 -1.3725123 179.71001
8.2923985 0.041971959 -1.1654356 179.71001
8.2774858 0.041896481 -0.96799994 179.71001
8.3137894 0.042080231 -0.77564764 179.71001
8.4432735 0.042735614 -0.59041882 179.71001
4.1657138 0.021084754 -1.854719 179.71001
20.259722 0.10254455 -0.94480509 179.71001
4.4161773 0.022352472 -1.8446343 179.71001
35.402008 0.17918718 -0.82194066 179.71001
4.6872525 0.023724519 -1.8303347 179.71001
4.9145293 0.024874881 -1.7887653 179.71001
5.1896701 0.026267506 -1.7536008 179.71001
5.3151722 0.026902735 -1.6585666 179.71001
5.4310589 0.027489295 -1.5573511 179.71001
5.6669593 0.028683305 -1.483547 179.71001
6.0153694 0.030446779 -1.4253174 179.71001
7.922894 0.040101714 -1.6840847 179.71001
8.6339788 0.043700866 -1.6267463 179.71001
8.3263607 0.014532256 -1.3679729 179.89999
8.32022 0.014521537 -1.1693324 179.89999
8.2934713 0.014474853 -0.96985835 179.89999
8.3138838 0.014510479 -0.77564764 179.89999
8.4573355 0.014760849 -0.59139538 179.89999
4.1675882 0.0072738207 -1.8555325 179.89999
20.251959 0.035346374 -0.94443238 179.89999
4.4162269 0.0077077779 -1.8446343 179.89999
35.406406 0.061795898 -0.82203352 179.89999
4.6854424 0.0081776483 -1.8296072 179.89999
4.9145851 0.0085775778 -1.7887653 179.89999
5.1802549 0.00904126 -1.7503997 179.89999
67.150917 0.11720058 3.1315243 179.89999
5.3075957 0.0092635108 -1.6561836 179.89999
60.45628 0.10551622 4.2275214 179.89999
5.4522681 0.0095160129 -1.5634151 179.89999
6.6054006 0.01152861 -1.7292008 179.89999
6.0076528 0.010485343 -1.4234729 179.89999
7.9288526 0.013838472 -1.6853322 179.89999
8.6419373 0.015083042 -1.6282275 179.89999
8.3757057 -0.01023286 -1.376079 180.07001
8.3538952 -0.010206213 -1.1740643 180.07001
8.3232746 -0.010168803 -0.97334284 180.07001
8.3318119 -0.010179234 -0.77731973 180.07001
8.4752979 -0.010354535 -0.59265101 180.07001
4.1748996 -0.0051006046 -1.8587865 180.07001
20.269957 -0.024764435 -0.9452709 180.07001
4.4217668 -0.0054022102 -1.8469467 180.07001
35.41243 -0.043264467 -0.82217276 180.07001
4.6854463 -0.0057243551 -1.8296072 180.07001
4.9145889 -0.006004306 -1.7887653 180.07001
5.2238383 -0.0063821259 -1.765125 180.07001
5.2980537 -0.0064727967 -1.6532048 180.07001
45.9338 -0.056118753 3.2120066 180.07001
6.0194163 -0.0073541082 -1.7260411 180.07001
45.597954 -0.055708438 4.2540789 180.07001
5.6708975 -0.0069283117 -1.48456 180.07001
6.0018191 -0.007332609 -1.4220896 180.07001
7.9210334 -0.0096773729 -1.6836689 180.07001
8.6478405 -0.010565336 -1.6293384 180.07001
8.438797 -0.033875685 -1.3864547 180.23
8.4013662 -0.033725429 -1.1807446 180.23
8.3589697 -0.033555236 -0.97752428 180.23
8.3556471 -0.033541899 -0.77954912 180.23
8.5131426 -0.034174129 -0.59530175 180.23
4.1712151 -0.01674442 -1.8571595 180.23
17.848459 -0.071648687 -0.8323527 180.23
4.4161983 -0.01772785 -1.8446343 180.23
35.424168 -0.1422025 -0.82245129 180.23
4.6854119 -0.018808549 -1.8296072 180.23
4.9107943 -0.019713297 -1.7873973 180.23
5.2219057 -0.020962184 -1.7644849 180.23
5.3132882 -0.021329021 -1.6579708 180.23
45.83371 -0.18398929 3.2050309 180.23
6.0059147 -0.024109416 -1.7221822 180.23
45.58567 -0.18299359 4.2529645 180.23
5.6321602 -0.022609062 -1.47443 180.23
7.2686868 -0.029178536 -1.7222776 180.23
7.9170628 -0.031781297 -1.6828372 180.23
8.6595697 -0.034761928 -1.6315602 180.23
8.4879761 -0.062221225 -1.3945607 180.42
8.4130917 -0.061672285 -1.1824147 180.42
8.3786764 -0.061420009 -0.97984731 180.42
8.3833685 -0.0614544 -0.78215009 180.42
8.5229578 -0.062477667 -0.5959993 180.42
4.1638284 -0.030523002 -1.8539057 180.42
17.666325 -0.12950325 -0.82387447 180.42
4.4161153 -0.032372393 -1.8446343 180.42
35.427502 -0.25970179 -0.82254416 180.42
4.6890497 -0.034373146 -1.8310622 180.42
4.9107018 -0.035997968 -1.7873973 180.42
5.2047548 -0.038153529 -1.7587228 180.42
5.3036427 -0.038878426 -1.6549921 180.42
46.295704 -0.33937132 3.2373979 180.42
6.0404062 -0.044279285 -1.7321051 180.42
45.210449 -0.33141583 4.2180371 180.42
7.2802267 -0.053367805 -1.7250444 180.42
7.9149575 -0.058020711 -1.6824214 180.42
8.6692333 -0.063549943 -1.6334118 180.42
8.4386168 -0.086899243 -1.1860331 180.59
8.4142122 -0.086647928 -0.9840287 180.59
8.4209824 -0.08671765 -0.78568 180.59
8.5367002 -0.087909289 -0.59697592 180.59
4.1746812 -0.042990062 -1.8587865 180.59
17.581959 -0.18105562 -0.81996149 180.59
4.4159994 -0.04547511 -1.8446343 180.59
35.430573 -0.3648572 -0.82263696 180.59
4.6852012 -0.048247296 -1.8296072 180.59
4.9143319 -0.050606839 -1.7887653 180.59
68.060051 -0.7008692 1.5802373 180.59
5.1970401 -0.053518116 -1.7561618 180.59
46.634842 -0.48023659 2.1748869 180.59
5.3054132 -0.054634117 -1.6555878 180.59
45.412376 -0.46764785 4.2369871 180.59
6.6282768 -0.068256713 -1.735279 180.59
45.2393 -0.46586558 5.2906642 180.59
7.280036 -0.074968405 -1.7250444 180.59
7.9069262 -0.081423998 -1.6807581 180.59
8.6749029 -0.089332469 -1.6345227 180.59
8.4858704 -0.11108613 -1.1927135 180.75
8.4556494 -0.11069051 -0.98890704 180.75
8.4625225 -0.11078049 -0.78958142 180.75
8.5783157 -0.11229631 -0.59990567 180.75
4.1763721 -0.054671705 -1.8595999 180.75
17.495485 -0.22902845 -0.81595528 180.75
4.4195461 -0.057855029 -1.8461759 180.75
35.42342 -0.46371794 -0.82249773 180.75
4.6831851 -0.061306253 -1.8288797 180.75
4.9141712 -0.064330027 -1.7887653 180.75
46.747395 -0.61195695 1.0854295 180.75
5.2480245 -0.068700403 -1.7734481 180.75
46.641312 -0.61056823 2.1752596 180.75
5.3128762 -0.069549359 -1.6579708 180.75
46.705936 -0.61141419 3.2662771 180.75
45.377041 -0.59401804 4.2338285 180.75
6.268218 -0.082055472 -1.6410694 180.75
7.2797985 -0.095297784 -1.7250444 180.75
7.9125361 -0.10358077 -1.6820055 180.75
8.6746197 -0.11355699 -1.6345227 180.75
9.673028 -0.15702215 -1.5894295 180.92999
8.5072622 -0.13809828 -1.1957753 180.92999
8.477108 -0.1376088 -0.99146235 180.92999
8.4919996 -0.13785052 -0.79236823 180.92999
8.5819101 -0.13931005 -0.60018468 180.92999
4.1761794 -0.067791872 -1.8595999 180.92999
17.438747 -0.28308299 -0.81334662 180.92999
4.4138069 -0.071649268 -1.8438634 180.92999
24.364223 -0.39550415 -0.56573993 180.92999
4.6848321 -0.076048829 -1.8296072 180.92999
4.9139452 -0.079768009 -1.7887653 180.92999
60.581692 -0.98342186 1.4067134 180.92999
5.2648335 -0.085463978 -1.7792102 180.92999
46.457382 -0.75414217 2.1667814 180.92999
5.3030863 -0.08608494 -1.6549921 180.92999
44.722885 -0.72598606 3.1277409 180.92999
5.3669782 -0.08712209 -1.5391589 180.92999
52.401508 -0.85063303 4.8894601 180.92999
6.3201623 -0.10259511 -1.654745 180.92999
7.2853007 -0.11826219 -1.7264278 180.92999
7.9160838 -0.12850168 -1.6828372 180.92999
8.6722546 -0.1407766 -1.6341524 180.92999
9.676466 -0.18579765 -1.590078 181.10001
8.5404778 -0.16398557 -1.2005072 181.10001
8.5263147 -0.1637136 -0.99726987 181.10001
8.5154448 -0.16350488 -0.79459763 181.10001
8.6353178 -0.16580658 -0.60395157 181.10001
4.1631727 -0.079937004 -1.8539057 181.10001
17.35194 -0.33317429 -0.80934048 181.10001
4.4117298 -0.084709533 -1.8430926 181.10001
24.306969 -0.46671763 -0.56444007 181.10001
4.6883116 -0.09002018 -1.8310622 181.10001
4.9118075 -0.094311528 -1.7880813 181.10001
45.933155 -0.88196158 1.0666288 181.10001
5.2494016 -0.10079366 -1.7740884 181.10001
53.110481 -1.0197734 2.4772134 181.10001
5.2951722 -0.1016725 -1.6526091 181.10001
44.315598 -0.85090292 3.0994196 181.10001
6.1124978 -0.11736595 -1.7530535 181.10001
44.74939 -0.85923213 4.1756783 181.10001
6.3469119 -0.12186694 -1.661836 181.10001
7.2518396 -0.13924244 -1.7185887 181.10001
7.9215355 -0.15210125 -1.6840847 181.10001
8.6698341 -0.16646932 -1.633782 181.10001
9.6719265 -0.21441995 -1.5894295 181.27
8.5973759 -0.19059791 -1.2085792 181.27
8.5595531 -0.1897594 -1.001219 181.27
8.5328398 -0.18916719 -0.79626966 181.27
8.6447611 -0.19164841 -0.60464913 181.27
4.1702237 -0.092450999 -1.8571595 181.27
17.304937 -0.38363856 -0.80719763 181.27
4.418839 -0.097962618 -1.8461759 181.27
24.297482 -0.53865844 -0.5642544 181.27
4.6675358 -0.10347605 -1.8230599 181.27
4.9171429 -0.10900968 -1.7901335 181.27
45.920338 -1.0180223 1.0663967 181.27
5.2585506 -0.11657845 -1.7772895 181.27
45.21574 -1.0024018 2.1091113 181.27
5.3062997 -0.11763702 -1.6561836 181.27
44.657951 -0.99003607 3.1235554 181.27
6.062149 -0.13439368 -1.7387204 181.27
52.598606 -1.1660749 4.9084101 181.27
6.2749524 -0.13911138 -1.6430954 181.27
7.2786336 -0.16136231 -1.7250444 181.27
7.9171376 -0.1755175 -1.683253 181.27
8.6712666 -0.19223602 -1.6341524 181.27
9.6731777 -0.24485403 -1.5897537 181.45
8.6501913 -0.21895951 -1.2160946 181.45
8.5926743 -0.21750359 -1.0051682 181.45
8.5879431 -0.21738385 -0.80147159 181.45
17.160585 -0.43438038 -1.2003694 181.45
4.1717396 -0.1055979 -1.857973 181.45
17.283674 -0.4374961 -0.80626595 181.45
4.4203544 -0.11189101 -1.8469467 181.45
24.249695 -0.61382473 -0.56318671 181.45
4.6671877 -0.11813901 -1.8230599 181.45
4.9167762 -0.12445678 -1.7901335 181.45
45.978878 -1.1638485 1.0678358 181.45
5.2827826 -0.13372137 -1.7856126 181.45
44.525333 -1.1270554 2.0770619 181.45
5.3822479 -0.13623911 -1.6800135 181.45
44.317551 -1.1217959 3.0999777 181.45
6.0982132 -0.15436211 -1.7491946 181.45
6.2725506 -0.15877505 -1.6425889 181.45
45.396008 -1.1490946 5.31041 181.45
7.2878184 -0.1844742 -1.72735 181.45
7.9204583 -0.20048802 -1.6840847 181.45
8.6647253 -0.21932742 -1.6330415 181.45
9.6684628 -0.27344221 -1.5891052 181.62
8.7029572 -0.24613591 -1.2236099 181.62
8.6515608 -0.24468233 -1.0121372 181.62
8.6429958 -0.24444011 -0.80667359 181.62
17.193125 -0.48625374 -1.2027411 181.62
4.1641021 -0.1177686 -1.854719 181.62
17.254341 -0.48798507 -0.80496162 181.62
4.4200029 -0.12500595 -1.8469467 181.62
4.6817145 -0.13240765 -1.8288797 181.62
4.9145069 -0.13899145 -1.7894493 181.62
45.657436 -1.2912776 1.0604547 181.62
5.2653165 -0.148913 -1.7798505 181.62
51.147942 -1.4465594 2.3861895 181.62
5.4524326 -0.15420499 -1.7020563 181.62
45.480709 -1.2862796 3.1815927 181.62
6.1034937 -0.17261823 -1.7508485 181.62
6.2198329 -0.17590851 -1.6289133 181.62
7.2814031 -0.20593169 -1.7259666 181.62
45.724178 -1.2931653 6.4286838 181.62
7.9120069 -0.22376636 -1.6824214 181.62
8.6384964 -0.24431284 -1.6282275 181.62
9.6675568 -0.30381519 -1.5891052 181.8
11.085529 -0.34837681 -1.5587387 181.8
8.7341394 -0.27448139 -1.0218939 181.8
17.252525 -0.54218245 -1.6103746 181.8
17.223419 -0.54126775 -1.2049733 181.8
4.1618857 -0.13079253 -1.8539057 181.8
17.240742 -0.54181218 -0.80440259 181.8
4.421433 -0.13894913 -1.8477176 181.8
4.668241 -0.14670537 -1.8237875 181.8
4.9121675 -0.15437108 -1.7887653 181.8
45.517258 -1.4304374 1.0572981 181.8
5.259141 -0.16527517 -1.7779298 181.8
45.012836 -1.4145854 2.1001673 181.8
5.6141238 -0.17643096 -1.752695 181.8
38.530842 -1.2108805 2.6956692 181.8
5.9895487 -0.18822914 -1.7183232 181.8
45.529709 -1.4308287 4.2498059 181.8
6.2850003 -0.19751409 -1.6461344 181.8
44.86993 -1.4100944 5.2497792 181.8
7.2787747 -0.22874472 -1.7255055 181.8
45.787197 -1.4389206 6.4381475 181.8
7.9053988 -0.24843717 -1.6811739 181.8
8.6298285 -0.27120328 -1.6267463 181.8
9.6608105 -0.32892227 -1.5881326 181.95
17.404291 -0.59256512 -1.6246799 181.95
17.261822 -0.58771443 -1.2077636 181.95
4.1633549 -0.14175002 -1.854719 181.95
17.215305 -0.58613062 -0.80328459 181.95
4.4099874 -0.15014714 -1.8430926 181.95
4.6659789 -0.1588629 -1.8230599 181.95
53.135212 -1.8090981 0 181.95
4.915503 -0.16735846 -1.7901335 181.95
45.505363 -1.5493242 1.0571125 181.95
5.277627 -0.17968772 -1.784332 181.95
45.350407 -1.5440484 2.1160986 181.95
5.523962 -0.18807471 -1.7246947 181.95
45.103664 -1.5356474 3.1557829 181.95
6.1446695 -0.20920797 -1.7629765 181.95
45.275043 -1.5414823 4.226397 181.95
6.3231354 -0.21528421 -1.6562644 181.95
44.737041 -1.523165 5.2346797 181.95
7.2839861 -0.24799836 -1.7268889 181.95
45.919849 -1.5634363 6.4573536 181.95
7.9125419 -0.26939884 -1.6828372 181.95
8.668375 -0.29513273 -1.6341524 181.95
9.649806 -0.36058837 -1.5865114 182.14
11.091184 -0.41444898 -1.5598521 182.14
13.433022 -0.50195742 -1.5719836 182.14
17.760426 -0.6636613 -1.658121 182.14
17.401333 -0.65024298 -1.217669 182.14
4.1646876 -0.15562366 -1.8555325 182.14
17.223249 -0.64358842 -0.80375046 182.14
4.4131536 -0.16490819 -1.8446343 182.14
4.672873 -0.17461324 -1.8259698 182.14
4.9186773 -0.1837983 -1.7915015 182.14
45.010448 -1.6819245 1.0457392 182.14
5.288363 -0.19761249 -1.7881736 182.14
47.409351 -1.7715653 2.2124333 182.14
5.5671892 -0.20803152 -1.738397 182.14
37.486237 -1.4007641 2.6231225 182.14
6.1458631 -0.22965507 -1.7635278 182.14
6.3591223 -0.23762402 -1.6658881 182.14
45.075161 -1.6843426 5.274868 182.14
7.2870131 -0.27229691 -1.7278111 182.14
45.938164 -1.7165908 6.4606938 182.14
7.9018302 -0.29527104 -1.6807581 182.14
8.6752043 -0.32417005 -1.6356336 182.14
9.6447496 -0.38905922 -1.5858629 182.31
11.101779 -0.44783425 -1.5615222 182.31
13.403685 -0.54069078 -1.5687313 182.31
16.146692 -0.65134084 -1.5076361 182.31
4.1623821 -0.16790618 -1.854719 182.31
17.23324 -0.69517106 -0.80430943 182.31
4.4126449 -0.17800154 -1.8446343 182.31
4.6797805 -0.18877751 -1.8288797 182.31
4.9124765 -0.19816422 -1.7894493 182.31
45.982201 -1.8548744 1.0684392 182.31
5.2953262 -0.21360797 -1.7907344 182.31
38.319157 -1.5457551 1.7884309 182.31
5.4654417 -0.22047025 -1.7068223 182.31
30.024206 -1.2111454 2.1012044 182.31
6.1547594 -0.24827662 -1.7662842 182.31
37.172215 -1.4994886 3.4708142 182.31
6.2675276 -0.25282556 -1.6420825 182.31
44.597572 -1.7990198 5.2195802 182.31
45.814133 -1.8480947 6.4439931 182.31
7.9009194 -0.31871492 -1.6807581 182.31
8.6820593 -0.3502253 -1.6371149 182.31
9.6396093 -0.41750321 -1.5852144 182.48
11.092486 -0.48042908 -1.5604088 182.48
13.404006 -0.58054382 -1.5689636 182.48
17.740257 -0.76835215 -1.6566348 182.48
4.1600404 -0.18017641 -1.8539057 182.48
17.223118 -0.74595422 -0.80393678 182.48
4.4139414 -0.19117317 -1.8454051 182.48
20.539204 -0.88957793 -0.47730678 182.48
4.6773386 -0.20258123 -1.8281523 182.48
4.9156222 -0.21290158 -1.7908175 182.48
45.804703 -1.9838574 1.064447 182.48
5.3211708 -0.23046638 -1.7996978 182.48
44.895073 -1.9444603 2.095602 182.48
5.5734863 -0.24139448 -1.74078 182.48
45.866894 -1.9865509 3.2103324 182.48
6.1559162 -0.26662022 -1.7668355 182.48
45.047958 -1.951082 4.2067041 182.48
6.2918787 -0.27250892 -1.648667 182.48
45.832413 -1.9850576 5.3647685 182.48
7.8979845 -0.34207132 -1.6803423 182.48
8.6829462 -0.37606895 -1.6374851 182.48
9.6323357 -0.44751006 -1.5842416 182.66
11.098836 -0.5156424 -1.5615222 182.66
13.410053 -0.62301958 -1.5698929 182.66
17.747702 -0.824543 -1.6575637 182.66
17.157551 -0.7971251 -1.201067 182.66
4.1594534 -0.19324465 -1.8539057 182.66
17.228672 -0.80042934 -0.80430943 182.66
4.4114752 -0.20495336 -1.8446343 182.66
20.442434 -0.94973797 -0.47512496 182.66
4.6673741 -0.21684219 -1.8245149 182.66
4.9224386 -0.22869226 -1.7935536 182.66
44.791603 -2.0809793 1.0410506 182.66
5.3317766 -0.24770977 -1.8035392 182.66
38.289043 -1.7788761 1.7874993 182.66
5.4735284 -0.25429544 -1.7098011 182.66
44.230171 -2.0548956 3.096211 182.66
6.1684914 -0.28658283 -1.7706944 182.66
44.991879 -2.0902841 4.2020597 182.66
6.2310772 -0.28949049 -1.6329653 182.66
7.2822976 -0.33832929 -1.72735 182.66
7.8968711 -0.36688185 -1.6803423 182.66
8.6836853 -0.40343654 -1.6378554 182.66
9.6389332 -0.47479522 -1.5855386 182.82001
11.111199 -0.54731619 -1.5634706 182.82001
13.438023 -0.66193098 -1.5733774 182.82001
17.735386 -0.87361085 -1.6566348 182.82001
17.157251 -0.84513301 -1.2012064 182.82001
4.1643724 -0.20512894 -1.856346 182.82001
17.22238 -0.84834111 -0.8041231 182.82001
4.4090424 -0.21718091 -1.8438634 182.82001
20.4417 -1.0069187 -0.47517139 182.82001
4.6667504 -0.2298751 -1.8245149 182.82001
45.786488 -2.2553537 0 182.82001
4.9161496 -0.24216001 -1.7915015 182.82001
38.341167 -1.8886118 0.89124811 182.82001
5.3329568 -0.26269114 -1.8041793 182.82001
5.5109348 -0.271458 -1.721716 182.82001
30.719648 -1.5131905 2.1507316 182.82001
6.1734276 -0.30409113 -1.7723482 182.82001
45.111168 -2.2220891 4.2137642 182.82001
6.2940154 -0.31003103 -1.6496799 182.82001
44.80994 -2.2072511 5.2465272 182.82001
7.2871556 -0.35895121 -1.7287333 182.82001
7.8899541 -0.38864386 -1.6790948 182.82001
8.6785984 -0.42749098 -1.6371149 182.82001
9.6471596 -0.50727463 -1.5871599 183.00999
11.111301 -0.58426327 -1.563749 183.00999
13.445672 -0.70701098 -1.5745388 183.00999
17.736368 -0.9326278 -1.6570064 183.00999
17.156345 -0.90212858 -1.201346 183.00999
4.1600204 -0.21874548 -1.854719 183.00999
17.229446 -0.90597242 -0.80458897 183.00999
4.408298 -0.23180063 -1.8438634 183.00999
4.6696835 -0.24554498 -1.8259698 183.00999
4.9134426 -0.25836253 -1.7908175 183.00999
5.3282719 -0.28017542 -1.8028989 183.00999
36.753227 -1.9325874 1.7163198 183.00999
5.643465 -0.29674914 -1.7634184 183.00999
29.49712 -1.551041 2.0654893 183.00999
6.1589465 -0.3238546 -1.7684892 183.00999
45.344173 -2.3843234 4.2362437 183.00999
6.3200026 -0.3323234 -1.6567709 183.00999
45.655376 -2.4006872 5.3464165 183.00999
7.2684345 -0.38219458 -1.7245833 183.00999
7.882761 -0.41449758 -1.6778474 183.00999
8.6830215 -0.45657751 -1.6382258 183.00999
9.6535883 -0.53464907 -1.5884569 183.17
11.123469 -0.6160562 -1.5656974 183.17
13.467446 -0.74587375 -1.5773265 183.17
16.351824 -0.90562052 -1.5278865 183.17
17.159737 -0.95036554 -1.2017646 183.17
4.1557446 -0.23015951 -1.8530922 183.17
17.202913 -0.95275682 -0.80347097 183.17
4.4113188 -0.2443141 -1.8454051 183.17
4.6726995 -0.25879028 -1.8274248 183.17
4.9164548 -0.27229029 -1.7921855 183.17
5.3444953 -0.29599664 -1.808661 183.17
30.984791 -1.7160449 1.4471607 183.17
5.793211 -0.32084808 -1.8104827 183.17
36.771717 -2.036545 2.5752695 183.17
6.1580181 -0.34105235 -1.7684892 183.17
45.564007 -2.5234923 4.2574234 183.17
6.3248458 -0.35029182 -1.6582905 183.17
30.820419 -1.7069415 3.6097314 183.17
