# .PCD v0.7 - Point Cloud Data file format
VERSION 0.7
FIELDS x y z intensity
SIZE 4 4 4 4
TYPE F F F F
COUNT 1 1 1 1
WIDTH 1151
HEIGHT 1
VIEWPOINT 0 0 0 1 0 0 0
POINTS 1151
DATA ascii
-5.9881454 -3.0379593 -2.0952508 333.10001
-6.5665412 -3.3313966 -2.1113822 333.10001
-7.2348151 -3.6704311 -2.1237667 333.10001
-8.1206007 -4.1198158 -2.1575735 333.10001
-9.2342691 -4.6848125 -2.2009532 333.10001
-10.670781 -5.4135966 -2.2544119 333.10001
-11.668686 -5.8763947 -2.1464756 333.26999
-11.925844 -6.0059004 -1.87661 333.26999
-13.271529 -6.6835928 -1.3863193 333.26999
-17.578648 -8.8526745 -1.3762952 333.26999
-4.1644573 -2.0972366 -2.0759838 333.26999
-27.312782 -13.754822 -1.426105 333.26999
-4.4354801 -2.2337248 -2.0743463 333.26999
-4.7571301 -2.3957088 -2.0798597 333.26999
-5.1094961 -2.5731616 -2.0822186 333.26999
-5.5252771 -2.7825508 -2.090364 333.26999
-5.9971328 -3.0201788 -2.0952508 333.26999
-6.5763969 -3.3118985 -2.1113822 333.26999
-7.2422175 -3.6472085 -2.1227536 333.26999
-8.1380033 -4.0983295 -2.158957 333.26999
-9.2516232 -4.659153 -2.2017848 333.26999
-10.692063 -5.3845639 -2.2555227 333.26999
-11.71608 -5.8567486 -2.1519878 333.44
-11.888694 -5.943037 -1.8679813 333.44
-16.531301 -8.2638283 -1.7242601 333.44
-4.1706619 -2.0848713 -2.0759838 333.44
-27.360622 -13.677296 -1.4264777 333.44
-4.4420881 -2.2205546 -2.0743463 333.44
-4.7625508 -2.3807507 -2.0791321 333.44
-5.1187892 -2.5588305 -2.0829027 333.44
-5.5352039 -2.7669919 -2.0910041 333.44
-6.0163136 -3.0074937 -2.0988255 333.44
-6.5930729 -3.29581 -2.1135871 333.44
-7.2581987 -3.6282995 -2.1242731 333.44
-8.1570902 -4.0776463 -2.1608014 333.44
-9.2619066 -4.6299329 -2.2009532 333.44
-10.713266 -5.3554525 -2.2566338 333.44
-11.722045 -5.8137746 -2.149718 333.62
-11.654644 -5.7803459 -1.5213418 333.62
-16.533989 -8.2003508 -1.7218449 333.62
-19.33576 -9.5899439 -1.5092511 333.62
-4.1788278 -2.0725703 -2.0767972 333.62
-27.738146 -13.757269 -1.4438999 333.62
-4.4440827 -2.2041285 -2.0720339 333.62
-4.7716756 -2.3666048 -2.0798597 333.62
-5.1301699 -2.5444069 -2.0842707 333.62
-5.542172 -2.7487471 -2.090364 333.62
-6.0154696 -2.9834883 -2.0952508 333.62
-6.5965052 -3.2716641 -2.1113822 333.62
-7.2678285 -3.6046197 -2.1237667 333.62
-8.1750908 -4.054594 -2.1621847 333.62
-9.279912 -4.6025515 -2.2017848 333.62
-10.731799 -5.3226428 -2.257004 333.62
-11.751637 -5.7850704 -2.1519878 333.79001
-11.789731 -5.803823 -1.846827 333.79001
-11.780458 -5.7992582 -1.5355122 333.79001
-16.526089 -8.1354265 -1.7185009 333.79001
-4.1816802 -2.0585485 -2.0751703 333.79001
-29.452957 -14.499038 -1.5309178 333.79001
-4.4539142 -2.1925631 -2.0735755 333.79001
-4.7820196 -2.3540821 -2.0813146 333.79001
-5.1343246 -2.527514 -2.0829027 333.79001
-5.5554028 -2.7348015 -2.0922847 333.79001
-6.0123053 -2.9597244 -2.0910807 333.79001
-6.6044583 -3.2512283 -2.1108308 333.79001
-7.2784915 -3.5830398 -2.1237667 333.79001
-8.185339 -4.0294609 -2.1617236 333.79001
-9.2952824 -4.575861 -2.2022007 333.79001
-10.745781 -5.2899094 -2.2566338 333.79001
-11.765974 -5.7513642 -2.1516635 333.95001
-11.480274 -5.611711 -1.7958897 333.95001
-12.124985 -5.9268537 -1.5782557 333.95001
-16.527273 -8.0787516 -1.7162714 333.95001
-17.669926 -8.6372948 -1.3753186 333.95001
-4.189054 -2.0476654 -2.0759838 333.95001
-29.452049 -14.396554 -1.5287749 333.95001
-4.4567037 -2.1784961 -2.0720339 333.95001
-17.598726 -8.6024914 -0.45479232 333.95001
-4.786901 -2.339901 -2.0805871 333.95001
-5.1464281 -2.5156426 -2.0849547 333.95001
-5.5647206 -2.7201095 -2.0929248 333.95001
-6.0325537 -2.9487925 -2.0952508 333.95001
-6.613512 -3.2327726 -2.1108308 333.95001
-7.2867303 -3.5618508 -2.1232603 333.95001
-8.196559 -4.0065875 -2.1617236 333.95001
-9.3132973 -4.5524635 -2.2034481 333.95001
-10.767574 -5.2633333 -2.2581151 333.95001
-11.792085 -5.7157588 -2.1529605 334.14001
-11.5309 -5.5891595 -1.8009 334.14001
-11.581496 -5.6136837 -1.5050807 334.14001
-16.550388 -8.0221634 -1.7158998 334.14001
-19.343004 -9.3757753 -1.5031126 334.14001
-4.1941772 -2.0329657 -2.0751703 334.14001
-29.487043 -14.292708 -1.5281228 334.14001
-4.4605818 -2.1620951 -2.070492 334.14001
-4.7946339 -2.3240142 -2.0805871 334.14001
-5.1547418 -2.4985626 -2.0849547 334.14001
-5.5720053 -2.7008147 -2.0922847 334.14001
-6.0474529 -2.9312699 -2.0970383 334.14001
-6.6276555 -3.2125008 -2.1119335 334.14001
-7.296761 -3.5368237 -2.1227536 334.14001
-8.2168055 -3.9827797 -2.163568 334.14001
-9.3283424 -4.5215545 -2.2034481 334.14001
-10.788506 -5.2293124 -2.2588556 334.14001
-11.993624 -5.7695637 -1.8704865 334.31
-11.567669 -5.5646567 -1.5011317 334.31
-16.563351 -7.9678426 -1.7147851 334.31
-19.322193 -9.2949905 -1.4993457 334.31
-4.198544 -2.0197203 -2.0743568 334.31
-30.026218 -14.444189 -1.5538368 334.31
-4.4719663 -2.1512508 -2.0728047 334.31
-4.8031874 -2.3105855 -2.0813146 334.31
-5.1621327 -2.4832571 -2.0849547 334.31
-5.5765791 -2.6826277 -2.0910041 334.31
-6.0526829 -2.9116585 -2.0958467 334.31
-6.6284957 -3.1886549 -2.1091771 334.31
-7.31071 -3.5168357 -2.1237667 334.31
-8.2250786 -3.9566953 -2.1626458 334.31
-9.3452425 -4.495553 -2.2042797 334.31
-10.79866 -5.1947236 -2.2577446 334.31
-11.573373 -5.5251756 -1.4997379 334.48001
-16.536602 -7.8946409 -1.7095832 334.48001
-17.655441 -8.4287796 -1.3680639 334.48001
-4.2045183 -2.0072541 -2.0743568 334.48001
-4.4799953 -2.138768 -2.0735755 334.48001
-17.598154 -8.4014301 -0.45274976 334.48001
-4.803297 -2.2931135 -2.0784047 334.48001
-5.1677818 -2.4671202 -2.0842707 334.48001
-5.587934 -2.6677024 -2.0922847 334.48001
-6.0630178 -2.8945096 -2.0964425 334.48001
-6.6466022 -3.173115 -2.1119335 334.48001
-7.3193665 -3.4942954 -2.1232603 334.48001
-8.236783 -3.9322736 -2.1626458 334.48001
-9.3550091 -4.4661198 -2.2034481 334.48001
-10.8158 -5.163507 -2.2581151 334.48001
-11.59726 -5.4919086 -1.803405 334.66
-11.716347 -5.5483027 -1.515999 334.66
-16.525326 -7.8256054 -1.7058675 334.66
-17.674622 -8.3698568 -1.3675059 334.66
-4.2124548 -1.9948174 -2.0751703 334.66
-28.615238 -13.550811 -1.4765083 334.66
-4.4833565 -2.1231034 -2.0720339 334.66
-4.8172121 -2.2812016 -2.0813146 334.66
-5.1738086 -2.4500687 -2.0835867 334.66
-5.5945745 -2.6493235 -2.0916443 334.66
-6.0720816 -2.8754478 -2.0964425 334.66
-6.6582756 -3.1530414 -2.1124847 334.66
-7.3320565 -3.4721117 -2.1237667 334.66
-8.2438192 -3.9038789 -2.1612625 334.66
-9.37253 -4.4383826 -2.2042797 334.66
-10.831968 -5.1295028 -2.2581151 334.66
-11.734068 -5.5166311 -2.1302636 334.82001
-11.617928 -5.4620295 -1.8042401 334.82001
-11.703032 -5.5020399 -1.5122821 334.82001
-16.565136 -7.7879 -1.7077253 334.82001
-19.342775 -9.0937729 -1.4946022 334.82001
-4.2213159 -1.984601 -2.0767972 334.82001
-28.792183 -13.536299 -1.4836822 334.82001
-4.4909377 -2.1113605 -2.0728047 334.82001
-4.8218775 -2.266948 -2.0805871 334.82001
-5.1806302 -2.435611 -2.0835867 334.82001
-5.6019511 -2.6336901 -2.0916443 334.82001
-6.0783596 -2.8576679 -2.0958467 334.82001
-6.6635752 -3.1327999 -2.1113822 334.82001
-7.3469768 -3.4540927 -2.1252861 334.82001
-8.2670164 -3.8866386 -2.1644902 334.82001
-9.3884287 -4.413857 -2.2051115 334.82001
-10.848029 -5.1000705 -2.2584853 334.82001
-11.670853 -5.4422078 -2.1156728 335
-11.6458 -5.4305258 -1.8059101 335
-11.642844 -5.4291477 -1.5022931 335
-16.55884 -7.7215137 -1.704567 335
-17.608253 -8.2108631 -1.3585771 335
-4.2225623 -1.9690131 -2.0743568 335
-28.81646 -13.437336 -1.4827504 335
-4.4992213 -2.0980213 -2.0735755 335
-32.656345 -15.227903 -0.83656347 335
-4.8222218 -2.2486391 -2.0776772 335
-5.1899595 -2.4201179 -2.0842707 335
-5.6119146 -2.6168787 -2.0922847 335
-6.0924983 -2.8409786 -2.0976338 335
-6.6768689 -3.1134751 -2.1124847 335
-7.3507776 -3.4277239 -2.1232603 335
-8.2738953 -3.8581805 -2.1631069 335
-9.4004755 -4.3835139 -2.2046955 335
-10.86756 -5.0676265 -2.2592258 335
-11.699487 -5.4133573 -2.1179423 335.17001
-11.670849 -5.4001064 -1.8073019 335.17001
-11.577774 -5.3570409 -1.4918395 335.17001
-11.897241 -5.504858 -1.2230152 335.17001
-19.349075 -8.9528255 -1.4908353 335.17001
-4.2267275 -1.9557086 -2.0735433 335.17001
-28.696646 -13.277949 -1.4745518 335.17001
-4.5037513 -2.0838876 -2.0728047 335.17001
-4.825491 -2.2327566 -2.0762222 335.17001
-5.1971173 -2.4047084 -2.0842707 335.17001
-5.6196542 -2.6002164 -2.0922847 335.17001
-6.1009007 -2.8228893 -2.0976338 335.17001
-6.6878219 -3.0944581 -2.1130359 335.17001
-7.3626714 -3.4067111 -2.1237667 335.17001
-8.2888384 -3.8352489 -2.1640291 335.17001
-9.4152155 -4.3564243 -2.2051115 335.17001
-10.895035 -5.0411367 -2.2618179 335.17001
-11.511902 -5.2875824 -2.0813031 335.32999
-11.601294 -5.3286414 -1.7942196 335.32999
-11.789451 -5.4150643 -1.5171604 335.32999
-16.54694 -7.6002479 -1.6988077 335.32999
-19.49366 -8.9537191 -1.5000432 335.32999
-4.2338328 -1.9446603 -2.0743568 335.32999
-29.116678 -13.37371 -1.49421 335.32999
-4.5078764 -2.0705323 -2.0720339 335.32999
-17.660891 -8.1119013 -0.45121783 335.32999
-4.838479 -2.222383 -2.0791321 335.32999
-5.2038121 -2.3901858 -2.0842707 335.32999
-5.6268935 -2.5845132 -2.0922847 335.32999
-6.1052899 -2.8042476 -2.0964425 335.32999
-6.6929431 -3.0741651 -2.1119335 335.32999
-7.3721561 -3.3861375 -2.1237667 335.32999
-8.2959785 -3.8104625 -2.1631069 335.32999
-9.4273443 -4.3301148 -2.2051115 335.32999
-10.907284 -5.0098724 -2.2614477 335.32999
-11.699076 -5.3291101 -2.1121061 335.51001
-11.571115 -5.2708225 -1.7869827 335.51001
-11.60936 -5.2882433 -1.4918395 335.51001
-11.817341 -5.3829818 -1.2114966 335.51001
-19.536219 -8.8990498 -1.5011593 335.51001
-4.2382584 -1.9305924 -2.0735433 335.51001
-29.098553 -13.254842 -1.4911355 335.51001
-4.5143585 -2.0563602 -2.0720339 335.51001
-4.8471322 -2.2079439 -2.0798597 335.51001
-5.213006 -2.3746049 -2.0849547 335.51001
-5.6367097 -2.5676086 -2.0929248 335.51001
-6.1123323 -2.7842622 -2.0958467 335.51001
-6.7043176 -3.0539205 -2.1124847 335.51001
-7.3809967 -3.3621583 -2.1232603 335.51001
-8.311451 -3.7859948 -2.1640291 335.51001
-9.4444618 -4.3020988 -2.2059431 335.51001
-10.930123 -4.9788404 -2.262929 335.51001
-11.583552 -5.235043 -2.0884364 335.67999
-11.546999 -5.218523 -1.780859 335.67999
-11.849462 -5.3552175 -1.5206449 335.67999
-19.453451 -8.7917461 -1.4927886 335.67999
-4.2456331 -1.9187613 -2.0743568 335.67999
-29.134111 -13.1668 -1.4909492 335.67999
-4.5204401 -2.0429568 -2.0720339 335.67999
-17.70647 -8.0022192 -0.451125 335.67999
-4.8485689 -2.1912508 -2.0776772 335.67999
-5.2183161 -2.3583531 -2.0842707 335.67999
-5.6408501 -2.5493121 -2.0916443 335.67999
-6.1205664 -2.7661142 -2.0958467 335.67999
-6.7133493 -3.0340149 -2.1124847 335.67999
-7.3927031 -3.3410406 -2.1237667 335.67999
-8.3244209 -3.7621191 -2.1644902 335.67999
-9.4571848 -4.2740574 -2.2059431 335.67999
-10.943056 -4.9455786 -2.2625587 335.67999
-11.472977 -5.1441307 -2.0657396 335.85001
-11.412435 -5.1169853 -1.7577562 335.85001
-11.812734 -5.2964673 -1.5139081 335.85001
-16.635223 -7.4587235 -1.7008513 335.85001
-4.2513075 -1.9061557 -2.0743568 335.85001
-29.193102 -13.089292 -1.491974 335.85001
-4.5264816 -2.0295355 -2.0720339 335.85001
-17.677225 -7.9259253 -0.44977877 335.85001
-4.858449 -2.1783795 -2.0791321 335.85001
-5.2287202 -2.3443975 -2.0856388 335.85001
-5.6501179 -2.5333395 -2.0922847 335.85001
-6.1339731 -2.7502854 -2.0976338 335.85001
-6.7170591 -3.011723 -2.1108308 335.85001
-7.4025836 -3.3190913 -2.1237667 335.85001
-8.3337708 -3.7366071 -2.1640291 335.85001
-9.4733944 -4.2475796 -2.2067747 335.85001
-10.955889 -4.9122844 -2.2621882 335.85001
-11.433178 -5.0832071 -2.0556881 336.03
-11.450171 -5.0907621 -1.7610965 336.03
-11.698624 -5.2012253 -1.4971825 336.03
-16.662212 -7.4080439 -1.7012229 336.03
-18.082981 -8.0397196 -1.3838289 336.03
-4.2622833 -1.8950173 -2.0767972 336.03
-27.216866 -12.100658 -1.3890246 336.03
-4.5345216 -2.0160549 -2.0728047 336.03
-4.8635664 -2.1623487 -2.0784047 336.03
-5.232625 -2.3264325 -2.0842707 336.03
-5.65978 -2.5163465 -2.0929248 336.03
-6.1460724 -2.7325525 -2.0988255 336.03
-6.730001 -2.9921682 -2.1119335 336.03
-7.4129744 -3.295819 -2.1237667 336.03
-8.3508034 -3.7127793 -2.1654127 336.03
-9.4866924 -4.2177968 -2.2067747 336.03
-10.967675 -4.8762441 -2.2614477 336.03
-11.50238 -5.0731544 -2.0654154 336.20001
-11.4018 -5.0287933 -1.7513543 336.20001
-11.903028 -5.2498608 -1.5213418 336.20001
-16.671366 -7.3529482 -1.6999224 336.20001
-18.061119 -7.9659023 -1.3803411 336.20001
-4.2612004 -1.8794132 -2.0735433 336.20001
-30.367447 -13.393641 -1.547781 336.20001
-4.5371065 -2.0011024 -2.0712628 336.20001
-17.681406 -7.798429 -0.44866467 336.20001
-4.8665519 -2.146405 -2.0769498 336.20001
-5.2412243 -2.3116553 -2.0849547 336.20001
-5.6654878 -2.4987779 -2.0922847 336.20001
-6.1471653 -2.7112229 -2.0964425 336.20001
-6.7388492 -2.9721866 -2.1119335 336.20001
-7.4244909 -3.2745907 -2.1242731 336.20001
-8.358222 -3.686415 -2.1644902 336.20001
-9.5027447 -4.1912098 -2.2076063 336.20001
-10.973104 -4.839715 -2.2595961 336.20001
-11.459524 -5.01369 -2.0550396 336.37
-11.389454 -4.9830337 -1.7471792 336.37
-11.885795 -5.2001886 -1.5171604 336.37
-16.651148 -7.2850924 -1.6956494 336.37
-19.594473 -8.572835 -1.4955788 336.37
-4.2650838 -1.8660294 -2.0727298 336.37
-29.136814 -12.747733 -1.4831232 336.37
-4.5447145 -1.9883715 -2.0720339 336.37
-4.8763123 -2.1334498 -2.0784047 336.37
-5.2463379 -2.2953408 -2.0842707 336.37
-5.6728768 -2.481957 -2.0922847 336.37
-6.1586809 -2.6945026 -2.0976338 336.37
-6.7441154 -2.9506378 -2.1108308 336.37
-7.4341741 -3.2525473 -2.1242731 336.37
-8.3691225 -3.6615994 -2.1644902 336.37
-9.5187235 -4.1645646 -2.2084379 336.37
-10.994617 -4.8102875 -2.2610774 336.37
-11.500566 -4.9886594 -2.0595791 336.54999
-11.486815 -4.9826946 -1.7597047 336.54999
-12.102536 -5.2497792 -1.5427135 336.54999
-12.992785 -5.6359468 -1.3212949 336.54999
-17.908104 -7.7680898 -1.3649946 336.54999
-4.2742777 -1.8540752 -2.0743568 336.54999
-29.154724 -12.646594 -1.4820051 336.54999
-4.5543251 -1.9755528 -2.0735755 336.54999
-4.8812814 -2.1173785 -2.0776772 336.54999
-5.2569714 -2.2803433 -2.0856388 336.54999
-5.6823845 -2.4648769 -2.0929248 336.54999
-6.1653643 -2.6743815 -2.0970383 336.54999
-6.7586432 -2.9317312 -2.1124847 336.54999
-7.4425807 -3.2284062 -2.1237667 336.54999
-8.3841553 -3.636838 -2.1654127 336.54999
-9.5263748 -4.1323047 -2.2071905 336.54999
-11.009675 -4.775723 -2.2610774 336.54999
-11.535338 -4.9679017 -2.0634699 336.70001
-11.410689 -4.9142189 -1.7460657 336.70001
-11.880883 -5.1167169 -1.5127467 336.70001
-16.630646 -7.1622877 -1.6893327 336.70001
-17.750635 -7.6446314 -1.3514619 336.70001
-4.2774386 -1.8421562 -2.0735433 336.70001
-29.05562 -12.513327 -1.4752971 336.70001
-4.5628715 -1.9650829 -2.0751171 336.70001
-17.675329 -7.6121998 -0.4468078 336.70001
-4.8833861 -2.1031182 -2.0762222 336.70001
-5.2611971 -2.2658296 -2.0849547 336.70001
-5.688818 -2.4499919 -2.0929248 336.70001
-6.1723447 -2.6582315 -2.0970383 336.70001
-6.766295 -2.914027 -2.1124847 336.70001
-7.4545608 -3.2104411 -2.1247797 336.70001
-8.3882856 -3.6125665 -2.1640291 336.70001
-9.5479412 -4.1119933 -2.2096856 336.70001
-11.02214 -4.7468834 -2.2610774 336.70001
-11.490033 -4.903285 -2.0524457 336.89001
-11.536219 -4.9229941 -1.7627665 336.89001
-11.654787 -4.9735923 -1.4818506 336.89001
-16.648811 -7.1047544 -1.6887754 336.89001
-18.137388 -7.7399931 -1.3789459 336.89001
-4.283524 -1.8279616 -2.0735433 336.89001
-27.985264 -11.942499 -1.4189311 336.89001
-4.5676651 -1.9492166 -2.0743463 336.89001
-37.000889 -15.78985 -0.93400234 336.89001
-4.895474 -2.0891066 -2.0784047 336.89001
-5.2669535 -2.2476325 -2.0842707 336.89001
-5.6934257 -2.4296265 -2.0916443 336.89001
-6.1811256 -2.6377487 -2.0970383 336.89001
-6.7776895 -2.8923278 -2.1130359 336.89001
-7.4633865 -3.1849439 -2.1242731 336.89001
-8.4037991 -3.5862579 -2.1649516 336.89001
-9.5597258 -4.0795407 -2.2092695 336.89001
-11.026975 -4.705678 -2.2588556 336.89001
-11.498229 -4.8688712 -2.0514729 337.04999
-11.569983 -4.8992548 -1.7658283 337.04999
-16.663084 -7.0559049 -1.688218 337.04999
-17.782305 -7.5298333 -1.3503458 337.04999
-4.2919769 -1.8174174 -2.0751703 337.04999
-29.138876 -12.33872 -1.4756697 337.04999
-4.57479 -1.9371734 -2.0751171 337.04999
-17.743595 -7.5134416 -0.44736487 337.04999
-4.9012885 -2.0754275 -2.0784047 337.04999
-5.2732096 -2.2329159 -2.0842707 337.04999
-5.7019329 -2.4144566 -2.0922847 337.04999
-6.1867094 -2.6197329 -2.0964425 337.04999
-6.7892804 -2.8748889 -2.1141386 337.04999
-7.4722514 -3.1640897 -2.1242731 337.04999
-8.4173651 -3.5642936 -2.1658738 337.04999
-9.5710802 -4.0528288 -2.2092695 337.04999
-11.040072 -4.6748667 -2.2588556 337.04999
-11.523411 -4.8345323 -2.0530941 337.23999
-11.505808 -4.827147 -1.753581 337.23999
-16.607431 -6.9674821 -1.6802293 337.23999
-4.2962952 -1.8024679 -2.0743568 337.23999
-29.24227 -12.268303 -1.4788375 337.23999
-4.5794868 -1.9212781 -2.0743463 337.23999
-4.909862 -2.0598836 -2.0791321 337.23999
-5.2857842 -2.2175982 -2.0863228 337.23999
-5.7116556 -2.3962681 -2.0929248 337.23999
-6.1971231 -2.5999413 -2.0970383 337.23999
-6.7970037 -2.8516154 -2.1135871 337.23999
-7.4880552 -3.1415391 -2.1257927 337.23999
-8.4291382 -3.5363612 -2.1658738 337.23999
-9.5880756 -4.0225816 -2.2101014 337.23999
-11.059138 -4.6397514 -2.2595961 337.23999
-11.577791 -4.8169985 -2.0602274 337.41
-11.540194 -4.8013558 -1.7566429 337.41
-12.121279 -5.0431194 -1.5352799 337.41
-16.710766 -6.952599 -1.6885896 337.41
-19.542377 -8.1307049 -1.4800929 337.41
-4.2965636 -1.7876071 -2.0719163 337.41
-4.5936871 -1.9112266 -2.0782006 337.41
-4.9142323 -2.0445912 -2.0784047 337.41
-5.2853999 -2.1990175 -2.0835867 337.41
-5.7204895 -2.3800387 -2.093565 337.41
-6.2048101 -2.5815427 -2.0970383 337.41
-6.7983351 -2.8284817 -2.1113822 337.41
-7.4955573 -3.1185646 -2.1252861 337.41
-8.4395943 -3.5113358 -2.1658738 337.41
-9.5963564 -3.9926126 -2.2092695 337.41
-11.0783 -4.6091828 -2.2607071 337.41
-11.608452 -4.7893996 -2.0631456 337.57999
-11.398767 -4.7028885 -1.7329835 337.57999
-16.742367 -6.9075437 -1.6897043 337.57999
-22.740494 -9.3822432 -1.7201947 337.57999
-4.3069158 -1.7769415 -2.0743568 337.57999
-30.707056 -12.669077 -1.5490853 337.57999
-4.5925136 -1.8947731 -2.0751171 337.57999
-17.731009 -7.3154364 -0.4453223 337.57999
-4.9254432 -2.0321329 -2.0805871 337.57999
-5.2919011 -2.1833258 -2.0835867 337.57999
-5.7257748 -2.3623326 -2.0929248 337.57999
-6.2106776 -2.5623932 -2.0964425 337.57999
-6.8120289 -2.8104978 -2.1130359 337.57999
-7.5083542 -3.0977869 -2.1262991 337.57999
-8.449975 -3.4862797 -2.1658738 337.57999
-9.6099682 -3.9648681 -2.2096856 337.57999
-11.091928 -4.5762925 -2.2607071 337.57999
-11.559505 -4.7267637 -2.0517972 337.76001
-11.591307 -4.7397671 -1.7599831 337.76001
-12.306308 -5.0321364 -1.5547932 337.76001
-16.77873 -6.8609414 -1.6911906 337.76001
-19.425476 -7.9432144 -1.4675367 337.76001
-4.3124766 -1.7634022 -2.0743568 337.76001
-30.902039 -12.636063 -1.5569112 337.76001
-4.596735 -1.8796375 -2.0743463 337.76001
-4.92663 -2.0145338 -2.0784047 337.76001
-5.3022137 -2.1681125 -2.0849547 337.76001
-5.7366753 -2.345767 -2.0942054 337.76001
-6.2222309 -2.5443144 -2.0976338 337.76001
-6.8137064 -2.7861729 -2.1108308 337.76001
-7.5180492 -3.0741835 -2.1262991 337.76001
-8.4626875 -3.4604528 -2.1663349 337.76001
-9.6223774 -3.9346581 -2.2096856 337.76001
-11.106249 -4.5414238 -2.2607071 337.76001
-11.596435 -4.7041092 -2.0560124 337.92001
-11.523745 -4.6746225 -1.7477359 337.92001
-12.401306 -5.0306063 -1.5650145 337.92001
-16.807051 -6.8178024 -1.6921195 337.92001
-19.384722 -7.8634386 -1.4627932 337.92001
-4.3106117 -1.7486055 -2.0711031 337.92001
-30.992744 -12.572248 -1.5597063 337.92001
-4.600256 -1.8661 -2.0735755 337.92001
-4.935689 -2.0021689 -2.0798597 337.92001
-5.3065057 -2.152591 -2.0842707 337.92001
-5.7361803 -2.3268893 -2.0916443 337.92001
-6.2257733 -2.5254934 -2.0964425 337.92001
-6.8250237 -2.76858 -2.1119335 337.92001
-7.5301905 -3.0546317 -2.1273122 337.92001
-8.4723177 -3.4368069 -2.1663349 337.92001
-9.6351404 -3.9085073 -2.2101014 337.92001
-11.127995 -4.5140858 -2.2625587 337.92001
-11.657947 -4.688828 -2.0644426 338.09
-11.318903 -4.552465 -1.7146126 338.09
-12.388534 -4.9826703 -1.56153 338.09
-15.140421 -6.0894799 -1.5224988 338.09
-19.554199 -7.8647022 -1.4738147 338.09
-4.3225617 -1.738535 -2.0743568 338.09
-31.048447 -12.48769 -1.560638 338.09
-4.6074848 -1.8531312 -2.0743463 338.09
-36.91349 -14.846611 -0.92374319 338.09
-4.941608 -1.9875156 -2.0798597 338.09
-5.3163567 -2.1382396 -2.0856388 338.09
-5.7465749 -2.3112736 -2.0929248 338.09
-6.2314682 -2.5062976 -2.0958467 338.09
-6.8385592 -2.7504697 -2.1135871 338.09
-7.5320401 -3.029388 -2.1252861 338.09
-8.4896994 -3.4145586 -2.1681793 338.09
-9.648509 -3.8806322 -2.2105172 338.09
-11.123104 -4.4737144 -2.2588556 338.09
-11.542456 -4.6003032 -2.0414214 338.26999
-11.616478 -4.6298051 -1.7574779 338.26999
-12.376446 -4.932694 -1.5580455 338.26999
-16.848385 -6.7150073 -1.6921195 338.26999
-19.373089 -7.721241 -1.4583288 338.26999
-4.328002 -1.7249467 -2.0743568 338.26999
-31.180317 -12.427071 -1.5652963 338.26999
-4.6132836 -1.8386472 -2.0743463 338.26999
-37.242271 -14.843092 -0.93079931 338.26999
-4.9495583 -1.972671 -2.0805871 338.26999
-5.3195562 -2.1201355 -2.0842707 338.26999
-5.7538075 -2.2932086 -2.0929248 338.26999
-6.2464051 -2.4895358 -2.0982296 338.26999
-6.8418083 -2.7268367 -2.1119335 338.26999
-7.5487094 -3.0085757 -2.1273122 338.26999
-8.496769 -3.3864298 -2.1672571 338.26999
-9.6588354 -3.849577 -2.2101014 338.26999
-11.067725 -4.411097 -2.2447841 338.26999
-11.563396 -4.5689363 -2.0427184 338.44
-12.031712 -4.7539778 -1.8181574 338.44
-12.331908 -4.8725915 -1.5506119 338.44
-16.996023 -6.7154803 -1.7049385 338.44
-17.79644 -7.0317416 -1.3380687 338.44
-4.3314018 -1.7114264 -2.0735433 338.44
-29.637711 -11.710472 -1.4861045 338.44
-4.623868 -1.8269857 -2.076659 338.44
-17.779305 -7.0249705 -0.44383681 338.44
-4.9501915 -1.955923 -2.0784047 338.44
-5.3275709 -2.1050334 -2.0849547 338.44
-5.7605863 -2.2761266 -2.0929248 338.44
-6.2573156 -2.4723947 -2.0994213 338.44
-6.8516569 -2.7072313 -2.1124847 338.44
-7.5540042 -2.9847431 -2.1262991 338.44
-8.5049696 -3.3604894 -2.166796 338.44
-9.6738539 -3.8223395 -2.210933 338.44
-11.051518 -4.366683 -2.2388592 338.44
-11.544613 -4.5196362 -2.0368822 338.62
-11.371595 -4.451901 -1.7162827 338.62
-12.413746 -4.8598957 -1.5589746 338.62
-15.108949 -5.9150491 -1.513767 338.62
-17.889042 -7.0034361 -1.3433702 338.62
-4.3384585 -1.6984766 -2.0743568 338.62
-29.568316 -11.575791 -1.480794 338.62
-4.6244292 -1.8104322 -2.0743463 338.62
-37.306179 -14.605111 -0.93014938 338.62
-4.9563117 -1.9403619 -2.0784047 338.62
-5.3341579 -2.0882859 -2.0849547 338.62
-5.7677088 -2.258018 -2.0929248 338.62
-6.2579408 -2.4499407 -2.0970383 338.62
-6.8619184 -2.6863937 -2.1130359 338.62
-7.565145 -2.9617021 -2.1268058 338.62
-8.5118608 -3.3323348 -2.1658738 338.62
-9.6858149 -3.7919295 -2.210933 338.62
-11.140219 -4.3613186 -2.2540417 338.62
-11.801873 -4.5823851 -2.0800061 338.78
-11.505836 -4.4674406 -1.7346535 338.78
-12.443935 -4.8316822 -1.5610654 338.78
-15.242356 -5.9182425 -1.5254713 338.78
-18.877512 -7.3296866 -1.4160564 338.78
-4.346591 -1.6876773 -2.0759838 338.78
-4.629467 -1.7975112 -2.0743463 338.78
-17.761034 -6.8961844 -0.44235131 338.78
-4.9582376 -1.9251651 -2.0769498 338.78
-5.3399687 -2.0733821 -2.0849547 338.78
-5.7792907 -2.2439604 -2.0948455 338.78
-6.2683172 -2.4338377 -2.0982296 338.78
-6.8747702 -2.6693087 -2.1146898 338.78
-7.5715828 -2.9398644 -2.1262991 338.78
-8.5175047 -3.3071432 -2.1649516 338.78
-9.6945419 -3.7641587 -2.2105172 338.78
-11.168844 -4.3365946 -2.2573743 338.78
-11.542049 -4.4444513 -2.0320184 338.94
-11.616223 -4.4730129 -1.7494059 338.94
-12.511139 -4.8176146 -1.5678021 338.94
-17.628206 -6.7880235 -1.7623458 338.94
-17.704453 -6.8173833 -1.3266286 338.94
-4.3512869 -1.6755327 -2.0759838 338.94
-17.696724 -6.8144073 -0.88433975 338.94
-4.6379128 -1.7859027 -2.0758879 338.94
-17.66267 -6.8012943 -0.43942675 338.94
-4.9705486 -1.9139893 -2.0798597 338.94
-5.3439841 -2.0577867 -2.0842707 338.94
-5.7819982 -2.2264509 -2.093565 338.94
-6.2750893 -2.4163237 -2.0982296 338.94
-6.8768148 -2.6480279 -2.1130359 338.94
-7.5851793 -2.920795 -2.1278186 338.94
-8.5357876 -3.2868416 -2.1672571 338.94
-9.7123184 -3.7398839 -2.2121804 338.94
-11.184579 -4.3068013 -2.2581151 338.94
-12.300908 -4.6898813 -1.8501672 339.13
-12.953957 -4.9388647 -1.6212314 339.13
-17.663645 -6.7344947 -1.7636462 339.13
-19.798122 -7.5482922 -1.4816275 339.13
-4.3551121 -1.6604432 -2.0751703 339.13
-17.767759 -6.7741899 -0.88676208 339.13
-4.6472583 -1.7718279 -2.0774298 339.13
-37.229191 -14.194115 -0.92504299 339.13
-4.9751272 -1.8968322 -2.0791321 339.13
-5.3507786 -2.0400541 -2.0842707 339.13
-5.7893496 -2.2072649 -2.093565 339.13
-6.2866359 -2.3968618 -2.0994213 339.13
-6.8855581 -2.6252089 -2.1130359 339.13
-7.5930157 -2.8949363 -2.1273122 339.13
-8.5557327 -3.2619846 -2.1695626 339.13
-9.7246666 -3.7076559 -2.2121804 339.13
-11.19329 -4.2675877 -2.257004 339.13
-11.337658 -4.2864056 -1.7034788 339.29001
-12.285774 -4.6448579 -1.5359769 339.29001
-17.687969 -6.6872549 -1.7642037 339.29001
-20.162506 -7.622798 -1.5072979 339.29001
-4.3614407 -1.6489211 -2.0759838 339.29001
-30.832237 -11.656682 -1.5371599 339.29001
-4.6452832 -1.7562329 -2.0743463 339.29001
-4.9838901 -1.8842493 -2.0805871 339.29001
-5.3546968 -2.0244393 -2.0835867 339.29001
-5.7972631 -2.1917596 -2.0942054 339.29001
-6.2879467 -2.3772714 -2.0976338 339.29001
-6.8910642 -2.6052907 -2.1124847 339.29001
-7.5992603 -2.8730371 -2.1268058 339.29001
-8.5575266 -3.2353268 -2.1677182 339.29001
-9.7313232 -3.6791015 -2.2113488 339.29001
-11.18494 -4.2286677 -2.2529306 339.29001
-11.608542 -4.3471856 -2.0365579 339.47
-11.217526 -4.200757 -1.6834378 339.47
-12.614697 -4.7239714 -1.5752357 339.47
-17.73127 -6.6400342 -1.766433 339.47
-4.3648887 -1.6345704 -2.0751703 339.47
-29.441175 -11.025178 -1.4660736 339.47
-4.657691 -1.7442194 -2.0774298 339.47
-50.633537 -18.961327 -1.2552862 339.47
-4.9880404 -1.8679293 -2.0798597 339.47
-5.3627901 -2.0082662 -2.0842707 339.47
-5.8041201 -2.1735361 -2.0942054 339.47
-6.2935963 -2.3568358 -2.0970383 339.47
-6.9010153 -2.5843031 -2.1130359 339.47
-7.6082487 -2.8491492 -2.1268058 339.47
-8.5676489 -3.2084267 -2.1677182 339.47
-9.7464972 -3.6498837 -2.2121804 339.47
-11.188967 -4.190062 -2.2510791 339.47
-11.512225 -4.272212 -2.0174277 339.64001
-17.745293 -6.5853167 -1.7658757 339.64001
-20.276031 -7.5244799 -1.5123204 339.64001
-4.3680062 -1.6209767 -2.0743568 339.64001
-24.356684 -9.0388184 -1.2115418 339.64001
-4.6611152 -1.7297502 -2.076659 339.64001
-31.792284 -11.798186 -0.78731012 339.64001
-4.9918141 -1.8524731 -2.0791321 339.64001
-5.3704872 -1.9929996 -2.0849547 339.64001
-5.8105435 -2.1563053 -2.0942054 339.64001
-6.3095112 -2.3414733 -2.1000168 339.64001
-6.9122577 -2.5651538 -2.1141386 339.64001
-7.6130409 -2.8252163 -2.1257927 339.64001
-8.5789547 -3.1836689 -2.1681793 339.64001
-9.7499475 -3.6182268 -2.2105172 339.64001
-11.186609 -4.1513748 -2.2481167 339.64001
-11.527442 -4.2367048 -2.0177519 339.82001
-17.778976 -6.5343447 -1.7671762 339.82001
-20.29208 -7.4579906 -1.5117623 339.82001
-4.3730769 -1.6072462 -2.0743568 339.82001
-4.6578655 -1.7119151 -2.0728047 339.82001
-17.840113 -6.5568137 -0.44128361 339.82001
-4.994112 -1.8354964 -2.0776772 339.82001
-5.374958 -1.9754695 -2.0842707 339.82001
-5.8172889 -2.1380403 -2.0942054 339.82001
-6.3078761 -2.3183467 -2.0970383 339.82001
-6.9148684 -2.5414362 -2.1124847 339.82001
-7.6291432 -2.8039551 -2.1278186 339.82001
-8.5925674 -3.1580443 -2.1691015 339.82001
-9.7649384 -3.5889282 -2.2113488 339.82001
-11.190372 -4.1128206 -2.2462652 339.82001
-11.502874 -4.1889772 -2.0112672 339.98999
-17.850677 -6.5006437 -1.7723781 339.98999
-20.246632 -7.3731732 -1.5067399 339.98999
-4.3812604 -1.5955143 -2.0759838 339.98999
-4.6715946 -1.7012448 -2.076659 339.98999
-35.966972 -13.098017 -0.88869488 339.98999
-5.003037 -1.8219455 -2.0791321 339.98999
-5.3843274 -1.9607992 -2.0856388 339.98999
-5.8200464 -2.1194739 -2.0929248 339.98999
-6.3201089 -2.3015807 -2.0988255 339.98999
-6.9241853 -2.5215659 -2.1130359 339.98999
-7.6392474 -2.7819686 -2.1283252 339.98999
-8.5982428 -3.1312039 -2.1681793 339.98999
-9.7737064 -3.5592699 -2.210933 339.98999
-11.189598 -4.0748925 -2.2436731 339.98999
-11.439139 -4.127367 -1.9979732 340.16
-11.28593 -4.0720873 -1.6862212 340.16
-12.646379 -4.562952 -1.5722158 340.16
-17.731274 -6.3976383 -1.7586302 340.16
-20.335979 -7.3374448 -1.5117623 340.16
-4.3894124 -1.5837481 -2.0776107 340.16
-29.195963 -10.534224 -1.4474403 340.16
-4.6748857 -1.6867502 -2.0758879 340.16
-50.980457 -18.394308 -1.2583036 340.16
-5.0119257 -1.8083578 -2.0805871 340.16
-5.3901215 -1.9448149 -2.0856388 340.16
-5.8263092 -2.1021962 -2.0929248 340.16
-6.32691 -2.2828186 -2.0988255 340.16
-6.9334445 -2.501663 -2.1135871 340.16
-7.645648 -2.7586336 -2.1278186 340.16
-8.6129875 -3.1076603 -2.1695626 340.16
-9.7860641 -3.5309191 -2.2113488 340.16
-11.190547 -4.037672 -2.2414513 340.16
-11.530107 -4.1192966 -2.0115914 340.34
-11.37327 -4.0632648 -1.6973552 340.34
-12.707418 -4.5399079 -1.5780234 340.34
-17.89193 -6.3921499 -1.7725639 340.34
-20.364567 -7.2755346 -1.5121808 340.34
-4.3892045 -1.5681064 -2.0751703 340.34
-29.806492 -10.648799 -1.4760425 340.34
-4.6766863 -1.6708134 -2.0743463 340.34
-35.940868 -12.840393 -0.88609529 340.34
-5.0158277 -1.7919767 -2.0798597 340.34
-5.3962045 -1.9278718 -2.0856388 340.34
-5.8328848 -2.0838821 -2.0929248 340.34
-6.3322525 -2.2622883 -2.0982296 340.34
-6.9394593 -2.4792218 -2.1130359 340.34
-7.6560988 -2.7352514 -2.1283252 340.34
-8.6227074 -3.0805864 -2.1695626 340.34
-9.8007927 -3.5014744 -2.2121804 340.34
-11.197623 -4.0005121 -2.2403402 340.34
-11.50879 -4.073216 -2.0057549 340.51001
-11.351669 -4.0176072 -1.6923449 340.51001
-12.65529 -4.4789877 -1.5698929 340.51001
-14.366574 -5.0846491 -1.421804 340.51001
-20.333401 -7.1964417 -1.5082744 340.51001
-4.3938375 -1.5550765 -2.0751703 340.51001
-28.984798 -10.258363 -1.4338379 340.51001
-4.6851025 -1.6581616 -2.0758879 340.51001
-5.0246348 -1.7783297 -2.0813146 340.51001
-5.3983574 -1.9105984 -2.0842707 340.51001
-5.8390422 -2.0665665 -2.0929248 340.51001
-6.3371367 -2.2428532 -2.0976338 340.51001
-6.9504094 -2.459904 -2.1141386 340.51001
-7.6660047 -2.7131689 -2.1288316 340.51001
-8.635479 -3.0562875 -2.1704848 340.51001
-9.8074503 -3.4710741 -2.2113488 340.51001
-11.192769 -3.961369 -2.2370076 340.51001
-11.528725 -4.04634 -2.0073762 340.66
-11.478013 -4.0285411 -1.7096024 340.66
-17.442574 -6.1219769 -1.7246317 340.66
-4.3944459 -1.542358 -2.0735433 340.66
-17.891401 -6.2795053 -0.88424659 340.66
-4.6911688 -1.6465015 -2.076659 340.66
-36.036549 -12.64807 -0.88669878 340.66
-5.0275154 -1.7645522 -2.0805871 340.66
-5.4051142 -1.8970814 -2.0849547 340.66
-5.8444324 -2.0512729 -2.0929248 340.66
-6.3483915 -2.2281518 -2.0994213 340.66
-6.9531975 -2.4404261 -2.1130359 340.66
-7.6785583 -2.6950123 -2.1303513 340.66
-8.6397781 -3.0323803 -2.1695626 340.66
-9.8238878 -3.4479778 -2.213012 340.66
-11.193829 -3.9287984 -2.2351561 340.66
-11.60617 -4.0280733 -2.0184004 340.85999
-11.381613 -3.9501376 -1.69318 340.85999
-17.482651 -6.0675826 -1.7264895 340.85999
-4.4067073 -1.5294054 -2.0767972 340.85999
-29.205462 -10.136138 -1.4416639 340.85999
-4.6899137 -1.6276959 -2.0735755 340.85999
-35.850029 -12.442222 -0.88103533 340.85999
-5.0318842 -1.7463813 -2.0798597 340.85999
-5.4152546 -1.8794349 -2.0863228 340.85999
-5.8533468 -2.0314806 -2.093565 340.85999
-6.357934 -2.2066042 -2.1000168 340.85999
-6.9562249 -2.4142489 -2.1113822 340.85999
-7.6806073 -2.6656554 -2.1283252 340.85999
-8.6521492 -3.0028415 -2.1700237 340.85999
-9.8284702 -3.4110992 -2.2113488 340.85999
-11.198191 -3.8864787 -2.2333045 340.85999
-11.578182 -3.9821677 -2.0115914 341.01999
-11.441294 -3.9350865 -1.7004169 341.01999
-12.255095 -4.2149835 -1.5155343 341.01999
-14.509184 -4.9902482 -1.4314647 341.01999
-20.372126 -7.006732 -1.5064608 341.01999
-4.4075055 -1.5159051 -2.0751703 341.01999
-17.970177 -6.1806126 -0.88620311 341.01999
-4.6944408 -1.6145929 -2.0735755 341.01999
-35.784424 -12.307595 -0.87857497 341.01999
-5.0367417 -1.7323228 -2.0798597 341.01999
-5.413373 -1.8618604 -2.0835867 341.01999
-5.8607888 -2.0157435 -2.0942054 341.01999
-6.3622661 -2.18822 -2.0994213 341.01999
-6.970212 -2.3973153 -2.1135871 341.01999
-7.6916804 -2.6454551 -2.1293383 341.01999
-8.6641817 -2.9799345 -2.1709459 341.01999
-9.8435078 -3.3855486 -2.2125962 341.01999
-11.199707 -3.8519962 -2.2314529 341.01999
-11.534588 -3.9266939 -2.0018642 341.20001
-11.594215 -3.9469929 -1.7212929 341.20001
-12.424357 -4.2295961 -1.5348153 341.20001
-17.514578 -5.9624486 -1.726118 341.20001
-4.4191647 -1.5044063 -2.0784242 341.20001
-29.412613 -10.012871 -1.4489309 341.20001
-4.6994901 -1.5998369 -2.0735755 341.20001
-35.775593 -12.179006 -0.87741446 341.20001
-5.0368681 -1.7146897 -2.0776772 341.20001
-5.426312 -1.8472673 -2.0863228 341.20001
-5.8652987 -1.9967107 -2.093565 341.20001
-6.3600721 -2.1651452 -2.0964425 341.20001
-6.9740691 -2.3741667 -2.1124847 341.20001
-7.698122 -2.6206546 -2.1288316 341.20001
-8.6735001 -2.9527004 -2.1709459 341.20001
-9.8522434 -3.3539772 -2.2121804 341.20001
-11.202451 -3.8136253 -2.2296016 341.20001
-11.563019 -3.8981271 -2.0047822 341.37
-11.656548 -3.9296575 -1.7288083 341.37
-12.482029 -4.2079439 -1.5403906 341.37
-17.53974 -5.9130006 -1.7268611 341.37
-18.973921 -6.3964915 -1.400152 341.37
-4.4149518 -1.4883693 -2.0743568 341.37
-29.411903 -9.9153461 -1.4474403 341.37
-4.6989698 -1.5841175 -2.0712628 341.37
-18.027994 -6.0776005 -0.44170141 341.37
-5.045464 -1.7009279 -2.0791321 341.37
-5.4335499 -1.8317593 -2.0870068 341.37
-5.8711977 -1.9792992 -2.093565 341.37
-6.3737049 -2.1487045 -2.0988255 341.37
-6.9810824 -2.3534639 -2.1124847 341.37
-7.7113638 -2.5996563 -2.1303513 341.37
-8.6803789 -2.926331 -2.1704848 341.37
-9.8640051 -3.3253553 -2.2125962 341.37
-11.196955 -3.7747195 -2.2262688 341.37
-11.732969 -3.9189668 -2.0323427 341.53
-11.365034 -3.7960715 -1.6839945 341.53
-12.292129 -4.1057329 -1.5155343 341.53
-17.56185 -5.86589 -1.7274184 341.53
-4.4208241 -1.4766135 -2.0751703 341.53
-18.047218 -6.0280089 -0.88732111 341.53
-4.7103767 -1.573328 -2.0743463 341.53
-35.905834 -11.993023 -0.87889993 341.53
-5.0537286 -1.6880121 -2.0805871 341.53
-5.4350786 -1.8153881 -2.0856388 341.53
-5.8767018 -1.962896 -2.093565 341.53
-6.3778696 -2.1302927 -2.0982296 341.53
-6.9930978 -2.3357871 -2.1141386 341.53
-7.7149234 -2.5768862 -2.1293383 341.53
-8.6885166 -2.9020793 -2.1704848 341.53
-9.8732529 -3.2977967 -2.2125962 341.53
-11.203724 -3.7421916 -2.2255282 341.53
-11.594647 -3.834563 -2.0064034 341.70001
-11.430779 -3.7803683 -1.6920666 341.70001
-16.533653 -5.4679828 -1.6246799 341.70001
-19.362772 -6.4036245 -1.4261013 341.70001
-4.4269204 -1.4640639 -2.0759838 341.70001
-29.466625 -9.7451544 -1.447347 341.70001
-4.7132721 -1.5587658 -2.0735755 341.70001
-34.433979 -11.38795 -0.84204119 341.70001
-5.0569458 -1.672425 -2.0798597 341.70001
-5.4368725 -1.7980736 -2.0842707 341.70001
-5.8860979 -1.9466407 -2.0948455 341.70001
-6.3896003 -2.1131582 -2.1000168 341.70001
-6.996347 -2.3138206 -2.1130359 341.70001
-7.7206979 -2.5533767 -2.1288316 341.70001
-8.6989374 -2.8768983 -2.1709459 341.70001
-9.8848515 -3.2691021 -2.213012 341.70001
-11.197984 -3.7033789 -2.2221954 341.70001
-11.516604 -3.7686567 -1.99084 341.88
-11.429421 -3.7401273 -1.6901182 341.88
-12.50955 -4.093585 -1.539229 341.88
-18.681206 -6.1131778 -1.3744816 341.88
-4.4349709 -1.4512856 -2.0776107 341.88
-18.053324 -5.9077115 -0.88583046 341.88
-4.716392 -1.5433769 -2.0728047 341.88
-34.477184 -11.282204 -0.84222686 341.88
-5.0604043 -1.6559504 -2.0791321 341.88
-5.4514256 -1.7839069 -2.0876911 341.88
-5.8921843 -1.9281394 -2.0948455 341.88
-6.3889494 -2.0906992 -2.0976338 341.88
-6.999927 -2.2906337 -2.1119335 341.88
-7.7268429 -2.5285072 -2.1283252 341.88
-8.7134809 -2.8513715 -2.1723294 341.88
-9.8932133 -3.2374234 -2.2125962 341.88
-11.203959 -3.6663475 -2.2210846 341.88
-11.550265 -3.7417684 -1.9947308 342.04999
-11.90585 -3.8569617 -1.7588696 342.04999
-11.882897 -3.8495262 -1.4607111 342.04999
-4.435781 -1.4369943 -2.0759838 342.04999
-28.999144 -9.3944225 -1.4215399 342.04999
-4.7262173 -1.5310826 -2.0751171 342.04999
-40.359585 -13.074697 -0.98497325 342.04999
-5.06884 -1.642077 -2.0805871 342.04999
-5.4495425 -1.7654076 -2.0849547 342.04999
-5.899682 -1.9112325 -2.0954859 342.04999
-6.3933082 -2.0711453 -2.0970383 342.04999
-7.0103507 -2.2710392 -2.1130359 342.04999
-7.7324705 -2.5049739 -2.1278186 342.04999
-8.7219028 -2.8255055 -2.1723294 342.04999
-9.9046364 -3.2086582 -2.213012 342.04999
-11.207309 -3.6306658 -2.2196033 342.04999
-11.575119 -3.7096798 -1.9970005 342.23001
-11.89339 -3.8116815 -1.7552512 342.23001
-4.4454937 -1.4247247 -2.0784242 342.23001
-18.064342 -5.7893939 -0.8846193 342.23001
-4.7274895 -1.5151007 -2.0735755 342.23001
-40.476624 -12.972248 -0.98683012 342.23001
-5.0721998 -1.6255761 -2.0798597 342.23001
-5.4586415 -1.7494258 -2.0863228 342.23001
-5.9002438 -1.8909539 -2.093565 342.23001
-6.4052377 -2.052798 -2.0988255 342.23001
-7.0211124 -2.2501781 -2.1141386 342.23001
-7.7476716 -2.4830313 -2.1298447 342.23001
-8.7251768 -2.7963092 -2.1709459 342.23001
-9.9165306 -3.1781232 -2.2134278 342.23001
-11.201815 -3.5900404 -2.2162707 342.23001
-11.898348 -3.7743783 -2.0508244 342.39999
-11.521418 -3.654809 -1.6987469 342.39999
-12.29246 -3.8993981 -1.5081006 342.39999
-16.46825 -5.2240367 -1.6118609 342.39999
-4.4479594 -1.4109759 -2.0776107 342.39999
-29.242611 -9.2763023 -1.4306703 342.39999
-4.7319636 -1.5010674 -2.0735755 342.39999
-34.616276 -10.980929 -0.84315532 342.39999
-5.0787764 -1.6110828 -2.0805871 342.39999
-5.4602251 -1.7320855 -2.0849547 342.39999
-5.9094405 -1.874585 -2.0948455 342.39999
-6.4058404 -2.0320523 -2.0970383 342.39999
-7.0222602 -2.2275922 -2.1124847 342.39999
-7.7550049 -2.4600325 -2.1298447 342.39999
-8.7334347 -2.7704086 -2.1709459 342.39999
-9.9221878 -3.1475034 -2.2125962 342.39999
-11.210544 -3.5561941 -2.2159002 342.39999
-11.708021 -3.6758051 -2.0161307 342.57001
-11.53788 -3.6223879 -1.6995819 342.57001
-11.841535 -3.7177222 -1.4514191 342.57001
-18.707785 -5.8734236 -1.3711332 342.57001
-4.4434104 -1.3950359 -2.0735433 342.57001
-29.087021 -9.1320486 -1.4217262 342.57001
-4.7381573 -1.4875735 -2.0743463 342.57001
-40.001579 -12.558741 -0.9734143 342.57001
-5.0799794 -1.5948906 -2.0791321 342.57001
-5.4617543 -1.7147511 -2.0835867 342.57001
-5.9131689 -1.8564756 -2.0942054 342.57001
-6.4100199 -2.012465 -2.0964425 342.57001
-7.0325069 -2.2078986 -2.1135871 342.57001
-7.7530398 -2.4341145 -2.1273122 342.57001
-8.7434731 -2.7450669 -2.1714072 342.57001
-9.9314823 -3.1180499 -2.2125962 342.57001
-11.198544 -3.5158513 -2.2114565 342.57001
-11.604541 -3.6033056 -1.9963521 342.75
-11.715651 -3.6378062 -1.7240764 342.75
-12.05425 -3.742944 -1.4760431 342.75
-16.482738 -5.1180263 -1.6101888 342.75
-18.539417 -5.7566419 -1.357461 342.75
-4.4495163 -1.3816115 -2.0743568 342.75
-29.113659 -9.0400314 -1.421633 342.75
-4.7357574 -1.4704918 -2.0712628 342.75
-40.119125 -12.45732 -0.9753176 342.75
-5.0867438 -1.579476 -2.0798597 342.75
-5.4707041 -1.6986988 -2.0849547 342.75
-5.9171624 -1.8373278 -2.093565 342.75
-6.4126639 -1.9911852 -2.0952508 342.75
-7.0357366 -2.1846542 -2.1124847 342.75
-7.7643442 -2.410893 -2.1283252 342.75
-8.7576294 -2.7193162 -2.1727905 342.75
-9.9449663 -3.0879941 -2.2134278 342.75
-11.20578 -3.4794872 -2.210716 342.75
-11.764256 -3.6146631 -1.7296433 342.92001
-11.903899 -3.6575696 -1.4562974 342.92001
-16.473104 -5.0614953 -1.6077737 342.92001
-18.531622 -5.6939912 -1.3556473 342.92001
-4.4570889 -1.3694767 -2.0759838 342.92001
-29.094519 -8.9395275 -1.419397 342.92001
-4.7418637 -1.4569761 -2.0720339 342.92001
-40.171204 -12.342928 -0.97568893 342.92001
-5.0985312 -1.566565 -2.0827696 342.92001
-5.4739237 -1.6819074 -2.0842707 342.92001
-5.9243989 -1.8203197 -2.0942054 342.92001
-6.4258437 -1.9743927 -2.0976338 342.92001
-7.0495386 -2.1660278 -2.1146898 342.92001
-7.778861 -2.3901181 -2.1303513 342.92001
-8.7656593 -2.69332 -2.1727905 342.92001
-9.9522142 -3.0578985 -2.213012 342.92001
-11.204782 -3.4427602 -2.2084942 342.92001
-11.799434 -3.5871918 -2.0261822 343.09
-11.75977 -3.5751333 -1.7274165 343.09
-16.438515 -4.9975367 -1.6029432 343.09
-18.422451 -5.6006808 -1.3464395 343.09
-4.4576364 -1.3551834 -2.0743568 343.09
-27.469423 -8.3510866 -1.3389008 343.09
-4.7532287 -1.4450475 -2.0751171 343.09
-39.922607 -12.137028 -0.96877211 343.09
-5.0960269 -1.549263 -2.0798597 343.09
-5.4842839 -1.6672986 -2.0863228 343.09
-5.9297738 -1.8027337 -2.0942054 343.09
-6.4335003 -1.9558735 -2.0982296 343.09
-7.0467372 -2.1423061 -2.1119335 343.09
-7.7859187 -2.3670273 -2.1303513 343.09
-8.7717505 -2.6667337 -2.1723294 343.09
-9.9593716 -3.0277872 -2.2125962 343.09
-11.209306 -3.4077847 -2.2073834 343.09
-11.881842 -3.5737669 -2.0385034 343.26001
-11.654634 -3.5054283 -1.7104374 343.26001
-11.887349 -3.5754232 -1.4516515 343.26001
-12.145442 -3.6530514 -1.1832575 343.26001
-18.492483 -5.5620861 -1.3503458 343.26001
-4.4633875 -1.3424776 -2.0751703 343.26001
-27.494081 -8.2695465 -1.3389008 343.26001
-4.7592626 -1.4314696 -2.0758879 343.26001
-38.840244 -11.682194 -0.94166195 343.26001
-5.1023855 -1.5346726 -2.0805871 343.26001
-5.4874072 -1.6504776 -2.0856388 343.26001
-5.9387255 -1.7862232 -2.0954859 343.26001
-6.4337902 -1.9351265 -2.0964425 343.26001
-7.0530624 -2.1213884 -2.1119335 343.26001
-7.7873492 -2.3422439 -2.1288316 343.26001
-8.779624 -2.6406958 -2.1723294 343.26001
-9.9739313 -2.9999144 -2.2138436 343.26001
-11.213721 -3.3728127 -2.2062724 343.26001
-11.932736 -3.548234 -2.0453124 343.44
-11.671284 -3.4704905 -1.7112725 343.44
-11.87377 -3.5307002 -1.4486315 343.44
-18.890429 -5.6171241 -1.3781089 343.44
-4.4658313 -1.3279281 -2.0743568 343.44
-27.341833 -8.1301746 -1.3302363 343.44
-4.769043 -1.4180889 -2.0782006 343.44
-35.492165 -10.553699 -0.85968143 343.44
-5.1018243 -1.5170424 -2.0784047 343.44
-5.4943666 -1.6337661 -2.0863228 343.44
-5.9443078 -1.7675574 -2.0954859 343.44
-6.4471579 -1.9170814 -2.0988255 343.44
-7.0615349 -2.0997682 -2.1124847 343.44
-7.798378 -2.3188705 -2.1298447 343.44
-8.7860107 -2.6125462 -2.1718683 343.44
-9.9851818 -2.9691231 -2.2142596 343.44
-11.211075 -3.3336461 -2.2036803 343.44
-11.814464 -3.4749453 -2.0232639 343.60999
-11.72333 -3.4481406 -1.717396 343.60999
-12.103354 -3.5599153 -1.4753462 343.60999
-16.569162 -4.8734274 -1.6113034 343.60999
-21.090944 -6.203403 -1.5372932 343.60999
-4.4662461 -1.3136407 -2.0727298 343.60999
-27.509584 -8.0912943 -1.3372239 343.60999
-4.7643771 -1.4013289 -2.0743463 343.60999
-39.988914 -11.761794 -0.96775085 343.60999
-5.1098776 -1.5029497 -2.0798597 343.60999
-18.208714 -5.3556628 0 343.60999
-5.4937811 -1.6158658 -2.0842707 343.60999
-5.9458904 -1.7488432 -2.0942054 343.60999
-6.4436598 -1.8952502 -2.0958467 343.60999
-7.0695786 -2.0793495 -2.1130359 343.60999
-7.8033676 -2.2951763 -2.1293383 343.60999
-8.7955914 -2.5870152 -2.1723294 343.60999
-9.9883175 -2.9378273 -2.213012 343.60999
-11.213374 -3.2981491 -2.202199 343.60999
-11.721093 -3.4075108 -2.0054307 343.79001
-11.682756 -3.3963659 -1.7098807 343.79001
-11.776852 -3.4237206 -1.4342288 343.79001
-12.457892 -3.6217103 -1.2103819 343.79001
-21.777033 -6.3309345 -1.5858437 343.79001
-4.4721055 -1.3001132 -2.0735433 343.79001
-18.261297 -5.3088541 -0.8868553 343.79001
-4.7723002 -1.3873847 -2.0758879 343.79001
-38.641369 -11.233669 -0.93428087 343.79001
-5.114574 -1.4868892 -2.0798597 343.79001
-18.279222 -5.314065 0 343.79001
-5.4988303 -1.5985986 -2.0842707 343.79001
-5.9549942 -1.7312129 -2.0954859 343.79001
-6.4550819 -1.8765965 -2.0976338 343.79001
-7.076076 -2.0571294 -2.1130359 343.79001
-7.8123975 -2.2711899 -2.1298447 343.79001
-8.8055439 -2.5599136 -2.1727905 343.79001
-9.9993763 -2.9069798 -2.2134278 343.79001
-11.22368 -3.2629049 -2.202199 343.79001
-11.647696 -3.3487251 -1.9911642 343.95999
-11.736562 -3.374274 -1.7162827 343.95999
-11.922506 -3.4277332 -1.4507222 343.95999
-16.579485 -4.7666197 -1.6094457 343.95999
-18.574394 -5.3401585 -1.3514619 343.95999
-4.479455 -1.2878482 -2.0751703 343.95999
-4.7781692 -1.3737288 -2.076659 343.95999
-38.461227 -11.057645 -0.92912811 343.95999
-5.1135917 -1.4701631 -2.0776772 343.95999
-18.268 -5.2520695 0 343.95999
-5.5017428 -1.5817569 -2.0835867 343.95999
-5.9564629 -1.7124894 -2.0942054 343.95999
-6.4606214 -1.8574356 -2.0976338 343.95999
-7.0821486 -2.0361254 -2.1130359 343.95999
-7.815383 -2.2469311 -2.1288316 343.95999
-8.814971 -2.5343134 -2.1732516 343.95999
-10.006077 -2.8767579 -2.213012 343.95999
-11.218202 -3.2252448 -2.1992366 343.95999
-11.728552 -3.338753 -2.0034854 344.10999
-11.779642 -3.3532968 -1.7212929 344.10999
-11.876033 -3.3807361 -1.4439855 344.10999
-12.094873 -3.4430332 -1.1732252 344.10999
-18.605581 -5.2964287 -1.3527175 344.10999
-4.4757824 -1.2741156 -2.0719163 344.10999
-27.627184 -7.8645973 -1.339553 344.10999
-4.7799745 -1.3607095 -2.0758879 344.10999
-38.863121 -11.063118 -0.9381339 344.10999
-5.1245904 -1.458811 -2.0805871 344.10999
-18.283611 -5.2047739 0 344.10999
-5.5130954 -1.5694063 -2.0863228 344.10999
-5.9627481 -1.6974083 -2.0948455 344.10999
-6.4709706 -1.8420836 -2.0994213 344.10999
-7.0856056 -2.017051 -2.1124847 344.10999
-7.8268213 -2.2280519 -2.1303513 344.10999
-8.8253183 -2.5122931 -2.1741738 344.10999
-10.017337 -2.8516235 -2.2138436 344.10999
-11.213374 -3.1920979 -2.1966445 344.10999
-11.752859 -3.3035796 -2.0057549 344.29999
-11.678205 -3.2825956 -1.7048705 344.29999
-11.648134 -3.274143 -1.4149477 344.29999
-16.546131 -4.650908 -1.6035006 344.29999
-18.628805 -5.236321 -1.3531361 344.29999
-4.4835005 -1.2602552 -2.0735433 344.29999
-29.11866 -8.184886 -1.4105462 344.29999
-4.7826838 -1.3443518 -2.0751171 344.29999
-38.928467 -10.942298 -0.9388302 344.29999
-5.125813 -1.440801 -2.0791321 344.29999
-18.260338 -5.1327491 0 344.29999
-5.5164599 -1.550607 -2.0856388 344.29999
-5.9683437 -1.6776258 -2.0948455 344.29999
-6.47153 -1.819065 -2.0976338 344.29999
-7.0922556 -1.9935431 -2.1124847 344.29999
-7.832304 -2.2015615 -2.1298447 344.29999
-8.833601 -2.4830134 -2.1741738 344.29999
-10.026738 -2.8183892 -2.2138436 344.29999
-11.214437 -3.1522362 -2.194793 344.29999
-11.724579 -3.2581258 -1.9992702 344.47
-11.811929 -3.2823989 -1.722963 344.47
-16.590557 -4.6103249 -1.6064731 344.47
-21.664171 -6.0202241 -1.5723109 344.47
-4.4907408 -1.2479253 -2.0751703 344.47
-27.38732 -7.610621 -1.325578 344.47
-4.799098 -1.3336141 -2.080513 344.47
-18.257076 -5.0734315 -0.43993741 344.47
-5.1318603 -1.4260849 -2.0798597 344.47
-18.298609 -5.0849729 0 344.47
-5.5192256 -1.5337293 -2.0849547 344.47
-5.975121 -1.6604173 -2.0954859 344.47
-6.4787383 -1.8003668 -2.0982296 344.47
-7.0999918 -1.973006 -2.1130359 344.47
-7.8350735 -2.1772768 -2.1288316 344.47
-8.8353043 -2.4552295 -2.1727905 344.47
-10.033172 -2.7881029 -2.2134278 344.47
-11.208591 -3.1147387 -2.1918304 344.47
-11.627624 -3.1940494 -1.9811127 344.64001
-11.705118 -3.2153368 -1.7059839 344.64001
-12.291814 -3.3764989 -1.4906781 344.64001
-18.492174 -5.0797062 -1.3409984 344.64001
-4.4961858 -1.2350794 -2.0759838 344.64001
-27.407852 -7.5287986 -1.3254849 344.64001
-4.8012543 -1.3188802 -2.0797422 344.64001
-39.075619 -10.733874 -0.94082636 344.64001
-5.1360688 -1.4108521 -2.0798597 344.64001
-5.5273767 -1.5183424 -2.0863228 344.64001
-5.976367 -1.6416777 -2.0942054 344.64001
-6.4803696 -1.7801247 -2.0970383 344.64001
-7.1076684 -1.9524405 -2.1135871 344.64001
-7.8452306 -2.155045 -2.1298447 344.64001
-8.8481798 -2.4305503 -2.1741738 344.64001
-10.043286 -2.7588398 -2.2138436 344.64001
-11.212098 -3.0799067 -2.1907196 344.64001
-11.829974 -3.2096989 -2.0138609 344.82001
-11.57945 -3.141727 -1.6862212 344.82001
